ncols        556
nrows        31
xllcorner    30.475
yllcorner    2.6166666665
cellsize     0.008333333333
NODATA_value -9999
-9999 -9999 -9999 -9999 -9999 -9999 -9999 -9999 -9999 -9999 -9999 -9999 -9999 -9999 -9999 -9999 -9999 -9999 -9999 -9999 -9999 -9999 -9999 -9999 -9999 -9999 -9999 -9999 -9999 -9999 -9999 -9999 -9999 -9999 -9999 -9999 -9999 -9999 -9999 -9999 -9999 -9999 -9999 -9999 -9999 -9999 -9999 -9999 -9999 -9999 1322 1310 1318 1314 1189 1156 1112 1063 1034 1015 1014 996 979 964 951 940 926 962 944 925 953 1066 986 1008 1008 880 818 789 768 766 774 744 724 715 707 709 704 694 687 678 673 669 662 658 653 648 646 656 636 661 631 629 627 624 623 623 623 623 623 629 653 704 735 765 773 781 816 829 845 832 808 840 830 857 859 892 890 890 887 881 877 875 880 878 894 920 932 923 914 903 916 915 903 941 956 959 976 997 988 1006 990 988 997 995 992 1002 997 1020 996 1021 1030 1008 1015 1017 1013 1025 1037 1044 1043 1041 1059 1072 1080 1081 1101 1094 1083 1085 1063 1068 1070 1077 1064 1053 1058 1066 1081 1067 1074 1073 1053 1068 1075 1084 1085 1083 1069 1079 1079 1058 1050 1064 1073 1063 1042 1043 1033 1024 1040 1034 1015 1014 990 1015 1020 1024 1045 1051 1034 1019 1028 1032 1029 1029 1053 1051 1063 1079 1078 1070 1064 1080 1069 1067 1050 1038 1028 1026 1023 1016 1004 1000 996 1002 1003 1005 1005 1008 1012 991 976 970 998 980 973 951 963 939 933 919 948 979 983 994 998 1012 1041 1041 1035 1033 1044 1043 1030 1033 1033 1042 1037 1022 1040 1042 1036 1022 1016 1012 1007 1003 1027 1028 1019 1026 1013 1018 1012 1015 1008 1019 1029 1042 1033 1023 1018 1036 1036 1022 1037 1027 1024 1034 1024 1028 1029 1040 1045 1030 1021 1015 1035 1039 1031 1027 1032 1033 1024 1020 1018 1015 1021 1023 1028 1031 1029 1026 1037 1041 1051 1061 1065 1062 1049 1041 1033 1033 1028 1028 1035 1035 1039 1045 1057 1060 1066 1070 1060 1067 1087 1089 1071 1061 1078 1086 1077 1080 1091 1113 1090 1114 1123 1119 1133 1168 1190 1548 1415 1294 1318 1198 1152 1109 1101 1087 1084 1100 1109 1108 1102 1108 1116 1127 1134 1153 1160 1180 1261 1227 1236 1245 1249 1250 1243 1237 1231 1217 1217 1212 1208 1209 1229 1225 1210 1192 1195 1203 1186 1182 1185 1180 1167 1179 1188 1176 1180 1186 1178 1180 1181 1184 1191 1194 1194 1182 1183 1186 1194 1207 1214 1210 1219 1225 1232 1245 1253 1274 1284 1301 1333 1397 1339 1332 1316 1305 1300 1282 1277 1263 1252 1245 1244 1244 1234 1226 1215 1214 1222 1226 1230 1237 1232 1224 1218 1223 1235 1238 1239 1246 1255 1263 1276 1272 1277 1279 1282 1303 1305 1318 1334 1353 1432 1408 1378 1372 1361 1365 1362 1363 1366 1376 1381 1335 1248 1176 1156 -9999 -9999 -9999 -9999 -9999 -9999 1188 -9999 -9999 -9999 -9999 -9999 -9999 -9999 -9999 -9999 -9999 -9999 -9999 -9999 -9999 -9999 -9999 -9999 -9999 -9999 -9999 -9999 -9999 -9999 -9999 -9999 -9999 -9999 -9999 -9999 -9999 -9999 -9999 -9999 -9999 -9999 -9999 -9999 -9999 -9999 -9999 -9999 -9999 -9999 -9999 -9999 -9999 -9999 -9999
-9999 -9999 -9999 -9999 -9999 -9999 -9999 -9999 -9999 -9999 -9999 -9999 -9999 -9999 -9999 -9999 -9999 -9999 -9999 -9999 -9999 -9999 -9999 -9999 -9999 -9999 -9999 -9999 -9999 -9999 -9999 -9999 -9999 -9999 -9999 -9999 -9999 -9999 -9999 -9999 -9999 -9999 -9999 -9999 -9999 -9999 -9999 -9999 -9999 -9999 1323 1314 1343 1367 1199 1181 1136 1111 1044 1053 1028 1008 991 965 944 932 954 978 959 938 979 999 946 912 961 863 813 797 770 768 758 745 730 725 711 711 705 699 711 686 670 666 661 657 654 650 673 666 675 678 654 628 624 625 622 623 624 622 624 642 647 713 737 745 754 785 817 813 841 816 796 826 826 853 856 877 878 877 881 879 854 864 887 894 904 909 912 903 896 892 915 898 914 933 950 972 995 995 973 1003 984 973 991 991 981 983 1003 995 1018 1023 1015 1033 1018 1031 1037 1019 1021 1023 1028 1051 1059 1072 1067 1080 1095 1095 1079 1070 1077 1069 1057 1070 1060 1052 1062 1074 1055 1070 1066 1064 1076 1077 1074 1070 1088 1082 1078 1087 1092 1072 1081 1059 1076 1071 1057 1054 1029 1042 1024 1044 1030 1016 1001 1004 1017 1034 1046 1040 1038 1027 1020 1043 1045 1037 1057 1060 1064 1076 1086 1078 1077 1089 1084 1066 1050 1046 1041 1037 1026 1018 1004 1004 1011 1005 1019 1020 1014 1010 1013 994 980 975 1002 991 969 955 974 969 949 947 915 988 975 977 987 999 1022 1029 1020 1032 1044 1043 1050 1030 1028 1036 1029 1046 1033 1039 1048 1042 1025 1023 1025 1025 1030 1026 1013 1025 1012 1008 1008 1005 1015 1037 1037 1037 1025 1022 1007 1022 1033 1017 1022 1015 1026 1023 1019 1020 1025 1039 1040 1037 1027 1013 1035 1027 1025 1031 1028 1025 1019 1014 1012 1016 1022 1023 1026 1026 1026 1027 1036 1039 1046 1056 1057 1056 1046 1038 1030 1026 1025 1029 1036 1037 1038 1042 1051 1057 1049 1054 1069 1087 1100 1092 1057 1068 1076 1066 1076 1076 1079 1094 1094 1099 1106 1120 1135 1159 1218 1405 1268 1226 1256 1287 1144 1107 1088 1082 1089 1101 1108 1100 1101 1110 1114 1122 1131 1144 1158 1190 1203 1247 1240 1262 1262 1250 1240 1223 1213 1209 1205 1208 1198 1207 1220 1225 1220 1197 1187 1203 1202 1189 1176 1170 1166 1174 1185 1171 1182 1190 1177 1178 1178 1182 1188 1190 1181 1181 1181 1187 1197 1206 1212 1216 1219 1227 1240 1248 1256 1269 1286 1307 1340 1384 1374 1351 1333 1320 1316 1289 1281 1269 1264 1256 1260 1246 1235 1225 1220 1213 1213 1220 1221 1231 1224 1220 1215 1225 1236 1235 1237 1250 1255 1262 1272 1266 1271 1273 1291 1349 1298 1309 1323 1333 1365 1485 1396 1355 1350 1350 1359 1355 1370 1381 1373 1317 1293 1236 1171 1173 1161 1115 1118 1133 1124 1213 1139 -9999 -9999 -9999 -9999 -9999 -9999 -9999 -9999 -9999 -9999 -9999 -9999 -9999 -9999 -9999 -9999 -9999 -9999 -9999 -9999 -9999 -9999 -9999 -9999 -9999 -9999 -9999 -9999 -9999 -9999 -9999 -9999 -9999 -9999 -9999 -9999 -9999 -9999 -9999 -9999 -9999 -9999 -9999 -9999 -9999 -9999 -9999
-9999 -9999 -9999 -9999 -9999 -9999 -9999 -9999 -9999 -9999 -9999 -9999 -9999 -9999 -9999 -9999 -9999 -9999 -9999 -9999 -9999 -9999 -9999 -9999 -9999 -9999 -9999 -9999 -9999 -9999 -9999 -9999 -9999 -9999 -9999 -9999 -9999 -9999 -9999 -9999 -9999 -9999 -9999 -9999 -9999 -9999 -9999 -9999 -9999 -9999 1351 1352 1355 1260 1190 1166 1176 1205 1170 1068 1031 1006 986 970 960 975 974 987 972 964 999 1029 1059 1040 969 885 808 787 772 784 763 774 738 724 727 731 749 809 835 759 718 705 711 677 661 677 677 661 685 687 678 650 624 623 623 623 623 624 628 636 654 701 711 766 790 796 801 798 814 804 786 794 821 837 853 856 872 856 858 837 848 862 884 899 906 889 896 903 875 908 894 908 925 931 945 982 978 982 972 975 969 979 985 1000 979 1003 989 1001 1010 1016 1036 1033 1029 1019 1044 1035 1044 1046 1044 1034 1049 1055 1062 1062 1081 1089 1082 1072 1071 1063 1066 1068 1037 1065 1070 1065 1059 1050 1056 1057 1049 1054 1078 1089 1076 1083 1097 1092 1097 1083 1072 1069 1089 1076 1060 1041 1054 1041 1050 1048 1040 1021 1005 1000 1024 1027 1045 1058 1045 1037 1025 1051 1049 1036 1051 1070 1079 1086 1093 1091 1090 1070 1065 1053 1045 1039 1024 1017 1017 1009 1009 1027 1010 1024 1029 1022 1007 997 989 978 989 990 1007 1001 975 965 979 982 970 962 933 914 997 991 977 995 1012 1013 1022 1017 1018 1034 1016 1035 1019 1014 1033 1043 1035 1033 1046 1038 1034 1015 1021 1017 1033 1030 1014 1012 1002 997 999 1010 1018 1036 1026 1027 1022 1013 1004 1010 1022 1021 1008 1016 1007 1013 1014 1015 1024 1030 1032 1024 1015 1006 1017 1016 1035 1033 1019 1018 1008 1008 1008 1015 1020 1020 1021 1023 1021 1025 1031 1035 1043 1044 1045 1049 1040 1036 1032 1025 1023 1033 1037 1034 1036 1036 1040 1045 1046 1059 1073 1089 1096 1083 1055 1064 1058 1072 1088 1103 1098 1083 1097 1118 1117 1129 1140 1147 1169 1197 1300 1204 1326 1318 1109 1091 1083 1085 1088 1096 1105 1097 1101 1110 1110 1114 1121 1140 1149 1167 1178 1224 1304 1263 1262 1269 1248 1230 1222 1217 1202 1199 1195 1209 1209 1221 1207 1192 1182 1195 1202 1190 1182 1169 1163 1165 1167 1175 1185 1186 1176 1176 1176 1184 1188 1183 1177 1179 1184 1189 1193 1203 1209 1211 1221 1230 1241 1249 1256 1263 1308 1322 1395 1378 1613 1387 1360 1324 1320 1287 1277 1264 1258 1251 1254 1253 1243 1242 1234 1217 1207 1216 1213 1223 1217 1212 1216 1225 1236 1231 1239 1247 1261 1267 1267 1262 1263 1268 1277 1286 1289 1297 1312 1320 1352 1391 1406 1343 1340 1342 1345 1345 1361 1359 1355 1340 1293 1249 1177 1193 1179 1139 1208 1150 1123 1259 1163 1143 1152 -9999 -9999 -9999 -9999 -9999 -9999 -9999 -9999 -9999 -9999 -9999 -9999 -9999 -9999 -9999 -9999 -9999 -9999 -9999 -9999 -9999 -9999 -9999 -9999 -9999 -9999 -9999 -9999 -9999 -9999 -9999 -9999 -9999 -9999 -9999 -9999 -9999 -9999 -9999 -9999 -9999 -9999 -9999 -9999 -9999
-9999 -9999 -9999 -9999 -9999 -9999 -9999 -9999 -9999 -9999 -9999 -9999 -9999 -9999 -9999 -9999 -9999 -9999 -9999 -9999 -9999 -9999 -9999 -9999 -9999 -9999 -9999 -9999 -9999 -9999 -9999 -9999 -9999 -9999 -9999 -9999 -9999 -9999 -9999 -9999 -9999 -9999 -9999 -9999 -9999 -9999 -9999 -9999 -9999 1382 1354 1373 1347 1220 1161 1146 1180 1222 1086 1057 1038 1014 1006 971 977 987 1000 985 946 941 1018 993 1162 1103 915 879 824 789 781 789 777 739 733 743 761 752 772 768 731 734 711 738 689 676 676 670 658 652 657 649 659 630 626 623 623 623 624 622 632 638 674 714 749 760 773 780 785 795 808 783 780 797 804 824 836 856 857 851 827 823 844 869 880 899 906 890 873 862 887 896 889 919 946 953 958 972 962 975 960 955 966 978 987 988 979 1002 1008 1018 1031 1030 1037 1040 1051 1048 1027 1041 1051 1055 1053 1055 1047 1053 1071 1077 1078 1088 1075 1082 1078 1071 1060 1058 1036 1053 1060 1062 1057 1052 1063 1073 1063 1064 1085 1088 1093 1096 1089 1106 1111 1093 1086 1077 1092 1066 1055 1057 1056 1049 1051 1048 1033 1024 1014 1002 1012 1024 1037 1052 1043 1038 1035 1040 1054 1066 1063 1088 1089 1071 1088 1088 1068 1074 1053 1047 1043 1029 1026 1037 1020 1016 1026 1029 1024 1025 1017 1017 1011 1003 993 986 999 991 1003 994 978 976 983 1001 988 968 963 937 996 996 987 984 996 998 1010 1027 1032 1035 1015 1017 1004 1017 1034 1036 1022 1027 1041 1029 1018 1010 1003 1012 1028 1016 1014 998 1005 1012 1000 1004 1000 1023 1022 1011 1012 1004 1009 1012 1004 1004 1019 1004 1006 1008 1007 1006 1015 1027 1038 1012 1008 1013 1007 1021 1033 1025 1013 1011 1007 1017 1009 1009 1011 1015 1016 1014 1017 1024 1029 1032 1032 1033 1040 1045 1032 1028 1029 1023 1025 1027 1029 1030 1033 1034 1046 1060 1062 1073 1079 1085 1072 1053 1052 1055 1064 1071 1093 1118 1113 1108 1116 1122 1130 1132 1135 1131 1142 1153 1185 1189 1305 1248 1094 1082 1085 1087 1087 1088 1093 1095 1108 1113 1114 1119 1124 1133 1139 1147 1160 1179 1184 1216 1235 1258 1246 1236 1217 1215 1212 1207 1194 1197 1199 1204 1200 1193 1179 1192 1188 1175 1178 1164 1161 1162 1173 1186 1186 1177 1172 1173 1179 1184 1182 1175 1174 1177 1190 1194 1196 1198 1204 1210 1213 1233 1237 1244 1243 1266 1295 1380 1465 1468 1600 1583 1396 1333 1311 1294 1286 1267 1258 1249 1245 1241 1244 1235 1228 1217 1210 1204 1209 1218 1212 1208 1221 1229 1234 1228 1235 1248 1281 1268 1255 1255 1259 1268 1270 1275 1289 1292 1299 1306 1317 1363 1363 1335 1332 1332 1333 1342 1354 1345 1352 1326 1318 1244 1239 1190 1167 1156 1230 1196 1134 1277 1191 1165 1231 1174 -9999 -9999 -9999 -9999 -9999 -9999 -9999 -9999 -9999 -9999 -9999 -9999 -9999 -9999 -9999 -9999 -9999 -9999 -9999 -9999 -9999 -9999 -9999 -9999 -9999 -9999 -9999 -9999 -9999 -9999 -9999 -9999 -9999 -9999 -9999 -9999 -9999 -9999 -9999 -9999 -9999 -9999 -9999 -9999
-9999 -9999 -9999 -9999 -9999 -9999 -9999 -9999 -9999 -9999 -9999 -9999 -9999 -9999 -9999 -9999 -9999 -9999 -9999 -9999 -9999 -9999 -9999 -9999 -9999 -9999 -9999 -9999 -9999 -9999 -9999 -9999 -9999 -9999 -9999 -9999 -9999 -9999 -9999 -9999 -9999 -9999 -9999 -9999 -9999 -9999 -9999 -9999 -9999 1387 1365 1371 1378 1246 1170 1130 1103 1133 1090 1065 1038 1031 981 970 1004 1016 1006 952 926 923 950 933 993 963 860 863 815 794 786 773 762 742 736 774 806 781 744 719 703 700 681 674 670 664 657 653 663 649 644 638 634 631 628 623 623 622 621 621 639 641 659 728 738 744 771 781 787 771 772 770 764 774 800 817 835 858 859 807 813 827 859 873 887 904 880 884 859 866 887 877 899 923 929 940 963 942 953 963 944 961 971 981 982 979 982 1002 1013 1011 1022 1019 1040 1042 1052 1048 1048 1048 1063 1070 1062 1047 1061 1055 1071 1078 1088 1087 1079 1058 1070 1059 1064 1060 1034 1051 1059 1051 1057 1044 1052 1064 1075 1062 1072 1071 1081 1080 1098 1102 1118 1110 1089 1084 1098 1075 1063 1073 1063 1062 1060 1039 1029 1023 1025 1005 1018 1032 1050 1062 1056 1043 1049 1053 1042 1048 1060 1081 1084 1088 1092 1081 1068 1055 1048 1043 1049 1036 1022 1038 1021 1036 1080 1068 1037 1019 1010 1004 991 989 985 995 1005 1018 1010 1004 999 988 989 1003 1006 994 984 967 943 996 997 983 991 1013 1014 1015 1017 1023 1022 1003 1022 1024 1032 1031 1017 1025 1028 1022 1013 1005 1000 993 994 1008 999 1008 1012 1021 999 1004 1001 1014 1015 1006 1003 1014 1009 1010 1007 1007 1010 1006 1007 1006 1016 1020 1006 1020 1020 1010 1018 1030 1016 1007 1018 1011 1012 1029 1015 1023 1026 1025 1020 1014 1013 1012 1013 1019 1021 1022 1028 1031 1025 1037 1027 1025 1022 1021 1029 1038 1045 1039 1038 1041 1055 1065 1077 1082 1075 1062 1050 1047 1061 1064 1077 1088 1105 1121 1113 1113 1119 1119 1118 1126 1120 1135 1137 1142 1150 1153 1144 1120 1099 1081 1089 1100 1101 1095 1098 1099 1105 1114 1116 1120 1127 1135 1142 1146 1157 1168 1177 1194 1233 1236 1237 1228 1233 1225 1216 1201 1192 1181 1194 1190 1193 1188 1177 1189 1183 1173 1171 1161 1160 1170 1187 1189 1181 1172 1172 1172 1174 1180 1173 1172 1173 1179 1189 1191 1195 1195 1200 1203 1212 1222 1233 1234 1235 1251 1276 1316 1492 1614 1759 1622 1389 1338 1304 1293 1283 1274 1260 1250 1240 1233 1234 1234 1229 1231 1218 1203 1203 1210 1204 1205 1220 1231 1230 1226 1235 1245 1266 1262 1249 1250 1261 1265 1265 1272 1279 1283 1288 1296 1304 1320 1343 1320 1318 1324 1331 1340 1347 1335 1349 1351 1338 1255 1241 1228 1190 1177 1247 1221 1175 1290 1205 1203 1237 1254 -9999 -9999 -9999 -9999 -9999 -9999 -9999 -9999 -9999 -9999 -9999 -9999 -9999 -9999 -9999 -9999 -9999 -9999 -9999 -9999 -9999 -9999 -9999 -9999 -9999 -9999 -9999 -9999 -9999 -9999 -9999 -9999 -9999 -9999 -9999 -9999 -9999 -9999 -9999 -9999 -9999 -9999 -9999 -9999
-9999 -9999 -9999 -9999 -9999 -9999 -9999 -9999 -9999 -9999 -9999 -9999 -9999 -9999 -9999 -9999 -9999 -9999 -9999 -9999 -9999 -9999 -9999 -9999 -9999 -9999 -9999 -9999 -9999 -9999 -9999 -9999 -9999 -9999 -9999 -9999 -9999 -9999 -9999 -9999 -9999 -9999 -9999 -9999 -9999 -9999 -9999 -9999 -9999 1400 1368 1400 1347 1235 1168 1128 1105 1088 1070 1060 1043 1002 983 996 1037 1050 997 980 923 900 885 893 875 907 853 840 802 793 787 778 772 748 782 787 753 736 718 710 702 690 694 691 675 676 665 655 646 652 640 639 636 657 636 623 622 623 623 633 641 659 668 698 716 753 757 771 750 756 750 746 742 771 785 794 836 858 808 799 835 850 862 876 896 876 866 843 851 872 877 874 900 906 919 935 956 933 943 947 938 943 952 967 971 979 985 990 985 991 1000 1006 1016 1022 1034 1055 1054 1067 1063 1071 1075 1061 1070 1064 1072 1088 1089 1079 1063 1061 1045 1040 1052 1033 1033 1053 1060 1052 1049 1041 1063 1062 1069 1070 1065 1073 1070 1084 1094 1079 1094 1113 1099 1108 1106 1096 1099 1084 1084 1069 1057 1047 1046 1036 1026 1017 1027 1035 1049 1063 1060 1039 1054 1053 1054 1060 1062 1079 1097 1080 1092 1081 1061 1072 1056 1057 1053 1045 1032 1049 1032 1045 1109 1057 1037 1018 1007 997 997 999 991 1002 1020 1010 1018 1005 1006 998 1004 1010 1007 991 975 972 960 950 1009 976 1004 1007 1004 1004 1008 999 1007 998 1005 1026 1019 1016 1010 1031 1019 1018 1007 991 1003 1002 1000 998 996 1015 1024 1028 1013 1001 1016 1020 1014 1002 1007 1019 1015 1014 1025 1013 1007 1003 1021 1013 1016 1023 1014 1006 1010 1009 1021 1031 1030 1017 1010 1013 1026 1039 1032 1022 1036 1038 1028 1024 1020 1018 1014 1015 1016 1018 1018 1020 1015 1016 1016 1019 1018 1026 1034 1047 1056 1052 1047 1047 1055 1072 1072 1071 1066 1050 1045 1050 1067 1079 1092 1099 1108 1114 1099 1104 1113 1105 1112 1114 1110 1124 1130 1131 1136 1194 1114 1101 1092 1080 1103 1108 1115 1115 1101 1106 1112 1120 1122 1122 1124 1136 1147 1153 1163 1186 1195 1220 1205 1242 1244 1242 1236 1222 1210 1198 1191 1181 1180 1185 1183 1189 1173 1190 1184 1175 1161 1156 1163 1174 1188 1189 1176 1167 1169 1171 1175 1173 1171 1170 1174 1181 1188 1186 1188 1191 1195 1200 1212 1218 1218 1223 1229 1245 1255 1288 1356 1518 1428 1462 1403 1326 1305 1292 1270 1266 1259 1252 1242 1232 1229 1223 1226 1231 1221 1211 1200 1203 1202 1208 1217 1228 1225 1220 1226 1236 1245 1261 1244 1247 1257 1259 1256 1265 1269 1273 1278 1285 1289 1299 1303 1309 1314 1327 1328 1323 1325 1337 1358 1357 1301 1279 1256 1224 1172 1249 1272 1226 1165 1320 1323 1265 1241 1330 1223 -9999 -9999 -9999 -9999 -9999 -9999 -9999 -9999 -9999 -9999 -9999 -9999 -9999 -9999 -9999 -9999 -9999 -9999 -9999 -9999 -9999 -9999 -9999 -9999 -9999 -9999 -9999 -9999 -9999 -9999 -9999 -9999 -9999 -9999 -9999 -9999 -9999 -9999 -9999 -9999 -9999 -9999 -9999
-9999 -9999 -9999 -9999 -9999 -9999 -9999 -9999 -9999 -9999 -9999 -9999 -9999 -9999 -9999 -9999 -9999 -9999 -9999 -9999 -9999 -9999 -9999 -9999 -9999 -9999 -9999 -9999 -9999 -9999 -9999 -9999 -9999 -9999 -9999 -9999 -9999 -9999 -9999 -9999 -9999 -9999 -9999 -9999 -9999 -9999 -9999 -9999 -9999 1397 1394 1403 1336 1214 1155 1142 1137 1127 1073 1034 1010 998 1004 1058 1063 1039 987 964 943 907 891 905 887 866 924 852 799 785 778 770 765 790 788 758 740 718 700 697 697 696 688 684 688 680 672 663 654 643 641 661 675 687 671 623 623 623 623 623 645 663 675 706 714 735 761 751 734 716 717 728 732 756 773 796 835 825 777 806 833 849 884 876 873 865 847 844 850 858 871 866 877 886 907 931 935 932 922 931 939 958 963 986 997 991 1001 1006 1017 1003 1008 1025 1028 1020 1028 1038 1061 1079 1103 1101 1085 1082 1080 1077 1076 1071 1077 1068 1067 1043 1053 1044 1049 1040 1033 1048 1051 1054 1040 1053 1056 1058 1061 1057 1049 1056 1073 1078 1077 1081 1098 1122 1097 1124 1155 1157 1145 1104 1076 1080 1066 1059 1058 1032 1037 1013 1015 1024 1043 1056 1067 1056 1055 1070 1063 1074 1060 1078 1092 1093 1092 1073 1078 1083 1066 1062 1055 1048 1036 1049 1048 1053 1054 1037 1030 1031 1012 995 1014 1005 1013 1003 1017 1037 1022 1019 1022 1017 1015 1011 992 987 988 998 982 951 986 992 1002 990 991 990 990 988 990 1001 1015 1018 1005 1008 1028 1019 1007 1013 1013 995 1009 1021 1001 1012 1008 1013 1025 1022 1008 1005 1024 1011 1003 1009 1007 1011 1015 1017 1029 1028 1028 1033 1028 1025 1014 1015 1026 1030 1015 1008 1024 1034 1034 1021 1020 1019 1024 1037 1044 1022 1041 1044 1037 1032 1025 1019 1018 1017 1015 1016 1017 1012 1016 1017 1031 1032 1031 1029 1040 1058 1064 1064 1064 1056 1063 1070 1063 1065 1054 1042 1042 1066 1075 1083 1094 1091 1097 1091 1094 1119 1119 1108 1100 1102 1114 1123 1127 1116 1139 1109 1107 1092 1082 1080 1096 1107 1116 1119 1118 1123 1118 1138 1176 1351 1128 1128 1150 1158 1165 1185 1186 1218 1281 1255 1253 1241 1228 1216 1207 1207 1203 1196 1179 1176 1174 1175 1169 1180 1181 1172 1156 1154 1172 1182 1188 1179 1169 1167 1169 1169 1170 1168 1167 1169 1174 1187 1185 1183 1185 1188 1192 1200 1206 1214 1212 1217 1219 1229 1243 1265 1321 1355 1370 1352 1374 1305 1295 1279 1266 1267 1259 1247 1244 1237 1230 1228 1216 1221 1208 1209 1198 1197 1201 1210 1217 1226 1220 1219 1225 1234 1243 1252 1242 1240 1245 1250 1259 1263 1265 1270 1278 1283 1287 1294 1299 1309 1315 1314 1309 1315 1333 1349 1353 1365 1316 1308 1258 1250 1240 1287 1297 1242 1194 1184 1377 1322 1333 1379 1254 1233 -9999 -9999 -9999 -9999 -9999 -9999 -9999 -9999 -9999 -9999 -9999 -9999 -9999 -9999 -9999 -9999 -9999 -9999 -9999 -9999 -9999 -9999 -9999 -9999 -9999 -9999 -9999 -9999 -9999 -9999 -9999 -9999 -9999 -9999 -9999 -9999 -9999 -9999 -9999 -9999 -9999 -9999
-9999 -9999 -9999 -9999 -9999 -9999 -9999 -9999 -9999 -9999 -9999 -9999 -9999 -9999 -9999 -9999 -9999 -9999 -9999 -9999 -9999 -9999 -9999 -9999 -9999 -9999 -9999 -9999 -9999 -9999 -9999 -9999 -9999 -9999 -9999 -9999 -9999 -9999 -9999 -9999 -9999 -9999 -9999 -9999 -9999 -9999 -9999 -9999 -9999 1410 1386 1364 1319 1262 1135 1194 1161 1231 1083 1045 1036 1034 1035 1097 1121 1055 981 964 948 918 913 935 922 902 877 872 820 787 768 764 779 780 777 752 729 720 696 688 684 678 675 668 675 669 659 649 647 643 660 683 679 667 659 636 624 622 620 622 637 651 668 690 703 736 753 732 697 703 713 736 749 768 792 808 826 792 772 811 839 847 852 861 858 848 821 840 835 863 867 870 874 877 900 923 912 915 928 943 944 950 982 985 991 1006 1011 1016 1014 1015 1006 1031 1042 1020 1039 1045 1054 1071 1092 1086 1096 1081 1062 1054 1049 1049 1076 1080 1066 1054 1038 1049 1047 1045 1029 1065 1056 1051 1031 1049 1056 1056 1042 1048 1058 1067 1082 1070 1087 1093 1094 1108 1124 1139 1168 1152 1131 1129 1089 1075 1052 1052 1034 1044 1034 1028 1027 1029 1050 1065 1060 1065 1057 1078 1075 1078 1062 1071 1104 1106 1104 1081 1096 1099 1082 1079 1062 1057 1051 1050 1037 1045 1032 1024 1012 1012 998 995 1021 1008 1016 1009 1030 1045 1041 1042 1036 1020 1022 1023 992 1007 1006 1006 983 966 956 1001 989 981 990 999 1006 993 982 992 994 994 1014 1011 1021 1008 1005 990 995 1001 1006 1012 1021 1017 1014 1024 1029 1027 1011 1002 1007 1006 1018 1026 1016 1017 1038 1020 1026 1028 1043 1047 1038 1027 1026 1021 1016 1031 1028 1021 1012 1025 1040 1035 1037 1027 1033 1032 1042 1040 1044 1052 1047 1036 1028 1021 1023 1022 1023 1022 1021 1014 1014 1015 1026 1034 1034 1038 1042 1055 1072 1077 1073 1062 1063 1058 1056 1055 1039 1041 1042 1056 1075 1078 1077 1082 1072 1079 1086 1108 1108 1096 1097 1104 1120 1130 1129 1121 1105 1098 1087 1083 1074 1077 1084 1091 1108 1112 1120 1129 1122 1136 1214 1213 1140 1138 1152 1183 1197 1180 1198 1250 1271 1368 1268 1257 1242 1225 1224 1216 1208 1208 1192 1172 1168 1163 1166 1176 1182 1171 1157 1151 1173 1187 1190 1175 1164 1165 1166 1167 1164 1165 1166 1170 1184 1185 1182 1178 1183 1187 1194 1199 1200 1201 1207 1213 1214 1223 1231 1243 1256 1279 1292 1310 1504 1311 1283 1269 1259 1252 1262 1260 1255 1249 1241 1231 1219 1215 1208 1201 1197 1196 1206 1214 1220 1224 1215 1213 1228 1237 1237 1233 1235 1238 1254 1255 1257 1255 1266 1278 1285 1291 1291 1294 1307 1302 1296 1303 1314 1330 1341 1330 1336 1350 1325 1319 1290 1256 1228 1309 1326 1270 1180 1186 1433 1409 1390 1393 1481 1314 1229 -9999 -9999 -9999 -9999 -9999 -9999 -9999 -9999 -9999 -9999 -9999 -9999 -9999 -9999 -9999 -9999 -9999 -9999 -9999 -9999 -9999 -9999 -9999 -9999 -9999 -9999 -9999 -9999 -9999 -9999 -9999 -9999 -9999 -9999 -9999 -9999 -9999 -9999 -9999 -9999 -9999
-9999 -9999 -9999 -9999 -9999 -9999 -9999 -9999 -9999 -9999 -9999 -9999 -9999 -9999 -9999 -9999 -9999 -9999 -9999 -9999 -9999 -9999 -9999 -9999 -9999 -9999 -9999 -9999 -9999 -9999 -9999 -9999 -9999 -9999 -9999 -9999 -9999 -9999 -9999 -9999 -9999 -9999 -9999 -9999 -9999 -9999 -9999 -9999 1403 1390 1368 1351 1310 1163 1181 1273 1263 1166 1111 1048 1044 1104 1060 1110 1109 1104 1022 986 980 935 937 946 921 897 915 867 820 791 778 789 796 792 760 733 723 708 699 691 684 680 674 668 661 656 652 649 647 664 667 687 693 668 675 651 623 623 623 622 625 639 666 680 693 757 719 679 694 698 722 742 776 778 807 818 813 769 783 808 822 829 830 836 842 805 816 816 829 849 869 894 895 899 893 904 900 904 922 927 948 946 958 967 975 973 996 1011 1024 1017 1046 1023 1025 1050 1043 1042 1065 1077 1085 1074 1078 1053 1047 1031 1030 1040 1052 1059 1059 1050 1045 1040 1036 1026 1038 1051 1056 1042 1028 1050 1048 1035 1044 1068 1064 1059 1062 1064 1076 1079 1100 1116 1125 1162 1151 1135 1122 1127 1095 1073 1070 1046 1058 1040 1039 1045 1036 1039 1036 1070 1076 1077 1068 1081 1073 1082 1091 1072 1092 1116 1116 1095 1104 1101 1087 1072 1061 1051 1042 1038 1030 1030 1033 1024 1010 1001 1002 1009 1028 1021 1023 1012 1017 1028 1053 1050 1033 1029 1018 1003 997 1016 1016 1004 985 986 970 958 1006 1005 998 1011 1009 992 988 997 983 993 1009 988 1014 999 989 992 1013 1009 1019 1022 1033 1041 1031 1034 1034 1024 1018 1006 1009 1004 1018 1032 1031 1013 1037 1021 1039 1036 1047 1056 1039 1026 1041 1034 1016 1030 1035 1024 1027 1020 1032 1039 1040 1034 1042 1047 1050 1039 1039 1055 1054 1042 1027 1023 1026 1028 1029 1028 1026 1021 1019 1016 1015 1023 1033 1037 1048 1062 1070 1081 1076 1060 1052 1047 1052 1038 1037 1044 1044 1047 1059 1060 1061 1078 1080 1088 1082 1086 1088 1095 1109 1119 1125 1126 1130 1137 1137 1106 1093 1080 1073 1081 1090 1089 1093 1101 1115 1128 1129 1132 1198 1163 1142 1137 1156 1283 1255 1225 1234 1223 1249 1390 1295 1284 1248 1234 1215 1205 1195 1198 1198 1194 1182 1167 1161 1163 1176 1169 1151 1151 1165 1176 1179 1171 1164 1163 1163 1163 1163 1164 1166 1178 1186 1184 1180 1177 1185 1188 1188 1193 1196 1198 1204 1208 1207 1217 1223 1231 1243 1260 1274 1281 1311 1281 1264 1261 1252 1247 1248 1249 1249 1256 1247 1238 1233 1222 1224 1210 1196 1194 1207 1208 1214 1210 1209 1212 1221 1228 1226 1230 1237 1248 1253 1250 1249 1260 1264 1275 1279 1276 1276 1282 1292 1286 1295 1309 1323 1324 1328 1326 1360 1348 1338 1313 1294 1264 1225 1319 1355 1284 1297 1212 1295 1444 1448 1479 1396 1328 1170 -9999 -9999 -9999 -9999 -9999 -9999 -9999 -9999 -9999 -9999 -9999 -9999 -9999 -9999 -9999 -9999 -9999 -9999 -9999 -9999 -9999 -9999 -9999 -9999 -9999 -9999 -9999 -9999 -9999 -9999 -9999 -9999 -9999 -9999 -9999 -9999 -9999 -9999 -9999 -9999 -9999
-9999 -9999 -9999 -9999 -9999 -9999 -9999 -9999 -9999 -9999 -9999 -9999 -9999 -9999 -9999 -9999 -9999 -9999 -9999 -9999 -9999 -9999 -9999 -9999 -9999 -9999 -9999 -9999 -9999 -9999 -9999 -9999 -9999 -9999 -9999 -9999 -9999 -9999 -9999 -9999 -9999 -9999 -9999 -9999 -9999 -9999 -9999 1407 1411 1395 1356 1333 1297 1173 1231 1259 1336 1158 1096 1081 1079 1089 1051 1171 1125 1141 1019 1003 965 939 957 943 968 926 894 878 810 792 793 787 783 788 776 734 714 706 701 692 688 682 681 668 664 659 663 669 657 668 691 691 675 689 670 657 624 624 624 624 625 640 656 670 673 727 708 677 690 698 710 735 758 775 782 804 807 756 781 801 798 805 812 810 788 787 800 808 860 874 893 909 905 911 896 913 908 916 923 936 958 958 968 975 989 988 983 1001 1026 1031 1039 1047 1036 1046 1063 1063 1063 1079 1082 1068 1041 1029 1010 1003 1014 1024 1041 1058 1060 1046 1038 1041 1032 1037 1046 1040 1043 1039 1036 1058 1041 1042 1046 1059 1064 1075 1075 1082 1080 1082 1096 1100 1118 1134 1139 1132 1111 1110 1116 1084 1074 1055 1055 1040 1036 1055 1054 1049 1049 1061 1080 1086 1079 1084 1089 1089 1100 1077 1097 1110 1118 1114 1117 1101 1085 1074 1059 1055 1050 1028 1036 1025 1016 1008 1005 1021 1013 1004 1032 1031 1038 1029 1040 1045 1050 1033 1014 1017 1015 1006 1011 1030 1017 999 992 1007 989 961 988 1006 1011 1015 1016 994 994 1006 989 988 993 993 1011 1020 1017 989 1003 1024 1024 1023 1031 1033 1020 1039 1034 1041 1025 1024 1020 1022 1018 1030 1036 1019 1038 1042 1034 1042 1052 1061 1037 1047 1047 1029 1013 1029 1044 1039 1036 1039 1024 1042 1046 1041 1048 1053 1053 1039 1036 1049 1055 1036 1032 1032 1035 1031 1033 1032 1030 1028 1025 1020 1015 1018 1033 1037 1042 1053 1055 1069 1069 1054 1041 1035 1037 1032 1039 1055 1061 1051 1051 1059 1075 1087 1103 1099 1111 1121 1112 1098 1106 1121 1125 1118 1106 1130 1131 1108 1093 1076 1075 1079 1088 1092 1105 1117 1112 1126 1136 1153 1175 1165 1153 1146 1169 1341 1267 1210 1225 1234 1256 1307 1381 1274 1247 1240 1217 1202 1197 1189 1188 1193 1188 1176 1161 1156 1155 1157 1151 1150 1162 1171 1174 1166 1163 1161 1160 1160 1163 1164 1168 1185 1188 1183 1176 1176 1179 1181 1185 1187 1190 1196 1198 1198 1201 1205 1212 1223 1233 1246 1260 1265 1262 1254 1257 1250 1241 1240 1246 1237 1240 1241 1244 1240 1236 1228 1222 1211 1202 1191 1200 1205 1207 1208 1206 1213 1222 1218 1224 1231 1248 1253 1244 1241 1246 1255 1264 1270 1273 1265 1270 1273 1279 1283 1292 1301 1316 1314 1315 1326 1337 1330 1343 1310 1295 1271 1271 1309 1357 1323 1233 1283 1296 1353 1386 1424 1329 1221 1153 1108 -9999 -9999 -9999 -9999 -9999 -9999 -9999 -9999 -9999 -9999 -9999 -9999 -9999 -9999 -9999 -9999 -9999 -9999 -9999 -9999 -9999 -9999 -9999 -9999 -9999 -9999 -9999 -9999 -9999 -9999 -9999 -9999 -9999 -9999 -9999 -9999 -9999 -9999 -9999 -9999
-9999 -9999 -9999 -9999 -9999 -9999 -9999 -9999 -9999 -9999 -9999 -9999 -9999 -9999 -9999 -9999 -9999 -9999 -9999 -9999 -9999 -9999 -9999 -9999 -9999 -9999 -9999 -9999 -9999 -9999 -9999 -9999 -9999 -9999 -9999 -9999 -9999 -9999 -9999 -9999 -9999 -9999 -9999 -9999 -9999 -9999 -9999 1438 1422 1394 1366 1310 1294 1251 1280 1241 1216 1120 1089 1064 1056 1078 1076 1183 1150 1068 1026 988 965 958 963 922 906 912 892 877 816 799 796 815 815 776 758 724 722 713 698 689 698 694 692 670 667 686 676 682 675 686 685 676 677 663 651 638 623 624 620 620 625 623 652 659 669 680 680 687 707 710 695 698 718 748 788 806 778 748 794 787 770 790 758 751 750 780 813 836 839 867 891 915 924 927 912 918 931 928 951 951 959 977 978 969 982 995 1006 1011 1026 1034 1040 1055 1055 1060 1069 1066 1068 1079 1057 1035 1040 1025 999 1006 1025 1032 1051 1041 1045 1043 1034 1029 1033 1050 1037 1047 1031 1023 1029 1046 1027 1039 1052 1075 1070 1065 1068 1082 1089 1083 1099 1090 1137 1141 1122 1134 1132 1113 1109 1103 1081 1069 1060 1055 1049 1059 1050 1066 1062 1078 1095 1109 1112 1108 1105 1101 1107 1112 1093 1109 1107 1101 1119 1095 1080 1074 1053 1042 1035 1027 1021 1024 1011 1026 1016 1020 1021 1010 1022 1031 1054 1053 1050 1049 1035 1034 1033 1028 1004 1015 1012 1027 1016 1001 1012 1002 988 964 970 989 1007 1028 1032 1004 1002 1008 999 991 1004 992 1008 1016 1008 992 999 1015 1011 1019 1034 1018 1019 1023 1027 1035 1044 1034 1032 1037 1021 1038 1029 1024 1034 1029 1042 1054 1062 1063 1040 1053 1047 1038 1021 1030 1041 1043 1040 1046 1031 1031 1045 1049 1066 1058 1050 1055 1044 1045 1055 1040 1037 1029 1041 1043 1040 1039 1035 1031 1028 1025 1019 1016 1024 1031 1039 1044 1046 1053 1048 1035 1028 1029 1032 1036 1038 1056 1066 1069 1059 1064 1074 1090 1100 1111 1122 1141 1125 1108 1114 1128 1126 1114 1101 1115 1104 1098 1079 1072 1093 1091 1093 1097 1111 1119 1127 1151 1150 1230 1192 1177 1162 1148 1172 1385 1272 1230 1241 1247 1257 1287 1332 1265 1248 1228 1213 1210 1203 1193 1181 1176 1174 1165 1160 1160 1154 1152 1149 1149 1153 1159 1167 1164 1157 1157 1157 1160 1160 1162 1175 1180 1186 1178 1170 1172 1176 1180 1181 1184 1188 1187 1195 1194 1193 1197 1207 1216 1225 1230 1235 1243 1246 1234 1242 1244 1235 1233 1242 1231 1229 1229 1243 1244 1234 1228 1219 1209 1207 1191 1190 1198 1198 1200 1209 1213 1213 1216 1224 1232 1237 1240 1236 1236 1246 1250 1265 1260 1259 1264 1270 1279 1290 1294 1297 1307 1310 1303 1313 1323 1322 1323 1335 1337 1307 1312 1294 1340 1353 1356 1288 1331 1262 1370 1372 1414 1273 1188 1187 1113 -9999 -9999 -9999 -9999 -9999 -9999 -9999 -9999 -9999 -9999 -9999 -9999 -9999 -9999 -9999 -9999 -9999 -9999 -9999 -9999 -9999 -9999 -9999 -9999 -9999 -9999 -9999 -9999 -9999 -9999 -9999 -9999 -9999 -9999 -9999 -9999 -9999 -9999 -9999 -9999
-9999 -9999 -9999 -9999 -9999 -9999 -9999 -9999 -9999 -9999 -9999 -9999 -9999 -9999 -9999 -9999 -9999 -9999 -9999 -9999 -9999 -9999 -9999 -9999 -9999 -9999 -9999 -9999 -9999 -9999 -9999 -9999 -9999 -9999 -9999 -9999 -9999 -9999 -9999 -9999 -9999 -9999 -9999 -9999 -9999 -9999 1459 1448 1402 1384 1365 1340 1311 1291 1269 1247 1138 1104 1084 1090 1062 1036 1049 1095 1214 1096 1023 1001 974 966 942 925 910 884 885 871 820 811 802 813 809 782 754 735 727 712 701 694 708 702 677 697 685 693 687 694 691 684 668 660 662 644 641 658 648 624 622 620 624 624 640 650 658 657 668 668 664 666 673 687 710 754 788 793 738 742 776 756 752 746 690 746 747 807 827 864 855 870 890 924 929 939 932 931 948 944 970 966 980 991 988 990 987 989 998 1006 1020 1042 1043 1040 1054 1063 1060 1046 1063 1062 1044 1023 1032 1004 993 991 1004 1023 1039 1022 1028 1031 1016 1032 1031 1032 1024 1022 1026 1047 1034 1043 1029 1047 1048 1051 1062 1048 1070 1067 1073 1090 1095 1099 1117 1132 1130 1117 1104 1108 1108 1110 1113 1100 1084 1062 1065 1062 1070 1076 1070 1094 1109 1114 1104 1088 1102 1088 1095 1105 1112 1113 1116 1095 1089 1083 1066 1060 1050 1042 1053 1041 1027 1028 1016 1034 1028 1034 1026 1011 1036 1027 1040 1062 1062 1054 1043 1030 1008 1012 1016 1029 1026 1017 1005 1011 1022 1008 997 983 978 964 1000 1016 1022 1019 1026 1023 1010 1017 1006 987 1002 998 993 998 994 1001 1002 1007 1013 1003 1010 1010 1025 1023 1037 1030 1038 1044 1030 1039 1037 1048 1040 1033 1050 1063 1067 1059 1044 1064 1052 1033 1023 1022 1039 1051 1053 1053 1040 1031 1044 1059 1068 1060 1057 1058 1056 1055 1057 1052 1050 1033 1036 1048 1052 1047 1040 1039 1032 1029 1021 1017 1019 1026 1030 1034 1038 1038 1031 1025 1027 1029 1031 1034 1045 1054 1079 1083 1085 1075 1075 1079 1098 1112 1147 1150 1131 1113 1131 1131 1116 1105 1104 1096 1090 1079 1069 1073 1094 1105 1113 1109 1104 1111 1124 1155 1152 1285 1206 1213 1167 1153 1164 1207 1281 1246 1245 1247 1250 1258 1251 1250 1237 1228 1231 1222 1214 1198 1187 1180 1175 1168 1164 1169 1170 1166 1154 1148 1147 1155 1168 1162 1154 1155 1155 1157 1158 1164 1171 1179 1181 1174 1169 1173 1180 1179 1179 1181 1184 1183 1186 1186 1186 1193 1199 1202 1214 1223 1227 1228 1229 1229 1229 1243 1227 1229 1237 1231 1222 1224 1229 1236 1228 1220 1217 1216 1203 1196 1188 1191 1194 1206 1208 1210 1209 1215 1220 1225 1226 1229 1230 1237 1245 1250 1252 1250 1256 1263 1270 1275 1287 1302 1312 1302 1294 1299 1318 1311 1307 1314 1325 1332 1334 1324 1320 1359 1377 1374 1323 1345 1339 1379 1400 1415 1298 1217 1260 1141 -9999 -9999 -9999 -9999 -9999 -9999 -9999 -9999 -9999 -9999 -9999 -9999 -9999 -9999 -9999 -9999 -9999 -9999 -9999 -9999 -9999 -9999 -9999 -9999 -9999 -9999 -9999 -9999 -9999 -9999 -9999 -9999 -9999 -9999 -9999 -9999 -9999 -9999 -9999 -9999
-9999 -9999 -9999 -9999 -9999 -9999 -9999 -9999 -9999 -9999 -9999 -9999 -9999 -9999 -9999 -9999 -9999 -9999 -9999 -9999 -9999 -9999 -9999 -9999 -9999 -9999 -9999 -9999 -9999 -9999 -9999 -9999 -9999 -9999 -9999 -9999 -9999 -9999 -9999 -9999 -9999 -9999 -9999 -9999 -9999 1509 1472 1426 1406 1385 1380 1342 1346 1285 1239 1229 1105 1090 1110 1130 1087 1067 1032 1083 1209 1104 1006 988 987 971 941 924 909 887 895 864 810 806 806 795 775 764 746 736 728 712 706 712 701 684 688 703 695 700 711 695 682 686 688 682 656 660 653 674 670 624 624 624 624 625 626 635 624 643 647 645 645 655 664 681 700 744 765 794 737 757 760 740 703 702 756 755 799 821 849 864 864 881 897 910 929 936 945 960 957 967 981 977 992 1003 1008 986 1006 1004 994 1017 1030 1043 1023 1046 1053 1040 1050 1048 1069 1040 1030 1016 1020 1015 996 989 1007 1023 1039 1025 1014 1023 1012 1022 1020 1030 1010 1027 1034 1040 1023 1026 1042 1046 1032 1035 1049 1062 1071 1082 1085 1103 1105 1095 1107 1136 1130 1121 1120 1116 1097 1114 1104 1104 1115 1106 1087 1092 1097 1094 1097 1113 1116 1116 1107 1102 1086 1100 1110 1107 1100 1124 1117 1117 1098 1084 1068 1057 1064 1053 1039 1035 1034 1038 1016 1037 1040 1034 1020 1024 1030 1043 1056 1064 1051 1041 1020 1022 1011 1021 1021 1040 1040 1030 1004 1018 1027 1018 1017 993 972 980 989 1002 1009 1015 1026 1034 1021 1022 1007 989 990 1007 1012 1013 1006 1020 1022 999 1007 1022 1016 1009 1009 1010 1027 1019 1036 1041 1041 1052 1050 1050 1048 1049 1044 1051 1062 1062 1057 1069 1062 1035 1035 1024 1033 1039 1050 1053 1048 1040 1037 1054 1056 1059 1066 1070 1071 1073 1066 1056 1054 1035 1041 1051 1060 1056 1049 1046 1039 1031 1020 1020 1018 1019 1021 1027 1025 1024 1024 1024 1027 1030 1034 1043 1056 1058 1078 1094 1094 1095 1087 1089 1108 1132 1231 1199 1148 1136 1151 1149 1118 1107 1092 1082 1077 1067 1072 1077 1081 1096 1118 1121 1130 1123 1135 1213 1162 1187 1253 1457 1196 1163 1178 1318 1339 1251 1230 1238 1242 1239 1234 1236 1227 1229 1233 1220 1207 1203 1197 1188 1181 1167 1164 1177 1181 1178 1159 1147 1144 1157 1166 1167 1156 1153 1152 1155 1161 1166 1169 1176 1179 1169 1167 1175 1179 1175 1176 1177 1179 1179 1183 1185 1181 1185 1191 1197 1204 1211 1213 1219 1223 1222 1231 1233 1243 1223 1230 1232 1221 1215 1219 1230 1228 1220 1209 1204 1207 1191 1185 1192 1200 1200 1204 1207 1203 1209 1212 1216 1218 1222 1231 1235 1240 1240 1243 1247 1260 1267 1274 1280 1290 1300 1304 1291 1287 1306 1304 1298 1307 1326 1339 1346 1352 1354 1366 1389 1384 1379 1374 1385 1393 1389 1400 1415 1366 1334 1234 1179 -9999 -9999 -9999 -9999 -9999 -9999 -9999 -9999 -9999 -9999 -9999 -9999 -9999 -9999 -9999 -9999 -9999 -9999 -9999 -9999 -9999 -9999 -9999 -9999 -9999 -9999 -9999 -9999 -9999 -9999 -9999 -9999 -9999 -9999 -9999 -9999 -9999 -9999 -9999 -9999
-9999 -9999 -9999 -9999 -9999 -9999 -9999 -9999 -9999 -9999 -9999 -9999 -9999 -9999 -9999 -9999 -9999 -9999 -9999 -9999 -9999 -9999 -9999 -9999 -9999 -9999 -9999 -9999 -9999 -9999 -9999 -9999 -9999 -9999 -9999 -9999 -9999 -9999 -9999 -9999 -9999 -9999 -9999 1491 1489 1496 1451 1433 1409 1401 1379 1337 1322 1232 1153 1131 1119 1128 1156 1178 1118 1048 1021 1064 1140 1004 986 971 968 979 969 940 920 909 864 837 812 798 791 788 786 781 755 750 732 732 718 703 697 699 709 701 705 713 704 697 695 694 690 673 669 681 660 686 674 679 624 624 623 624 623 624 625 623 625 624 637 648 656 671 708 765 802 763 722 742 734 674 668 727 766 786 818 838 862 878 875 880 904 912 915 924 928 940 951 960 975 992 1005 1021 1023 998 999 1005 1013 1013 1025 1021 1016 1040 1042 1052 1028 1038 1038 1036 1014 1004 1012 1016 1003 979 1003 1017 1032 1014 1023 999 1014 1021 1025 1014 1008 1015 1026 1026 1022 1034 1038 1038 1041 1050 1051 1057 1080 1073 1082 1086 1107 1098 1109 1119 1113 1098 1109 1102 1094 1109 1091 1111 1108 1100 1102 1112 1117 1108 1116 1114 1107 1108 1094 1091 1083 1084 1095 1103 1110 1106 1114 1115 1096 1087 1079 1079 1066 1058 1054 1048 1034 1029 1021 1050 1056 1022 1018 1037 1042 1054 1066 1063 1049 1040 1037 1033 1014 1032 1045 1041 1039 1027 1010 1008 1029 1039 1011 995 988 1000 975 979 987 1005 1017 1029 1027 1016 1001 995 993 1002 1019 1021 1013 1027 1033 1031 1016 1028 1017 1027 1011 1017 1017 1012 1023 1035 1042 1049 1056 1063 1062 1061 1061 1061 1068 1057 1067 1068 1044 1042 1040 1023 1021 1028 1034 1053 1057 1055 1047 1044 1047 1051 1055 1064 1074 1075 1060 1047 1050 1048 1059 1055 1064 1056 1055 1044 1034 1022 1022 1025 1027 1020 1019 1018 1022 1023 1026 1029 1030 1033 1038 1053 1063 1080 1087 1076 1088 1091 1095 1103 1112 1137 1157 1177 1162 1162 1171 1246 1131 1107 1096 1080 1067 1084 1098 1092 1121 1094 1102 1121 1131 1138 1249 1260 1172 1185 1300 1542 1206 1166 1197 1281 1486 1241 1229 1226 1244 1251 1235 1228 1216 1210 1205 1206 1205 1195 1195 1183 1176 1171 1173 1185 1189 1185 1168 1151 1145 1151 1162 1165 1154 1152 1152 1154 1160 1165 1166 1172 1172 1165 1166 1174 1175 1171 1171 1171 1174 1176 1182 1179 1176 1178 1184 1191 1196 1200 1199 1206 1207 1211 1212 1218 1220 1217 1225 1229 1224 1210 1215 1223 1224 1223 1209 1199 1193 1192 1184 1197 1198 1198 1201 1200 1200 1207 1214 1217 1220 1223 1226 1230 1241 1247 1248 1257 1263 1268 1283 1292 1286 1291 1292 1285 1284 1293 1293 1293 1310 1327 1326 1340 1348 1350 1357 1381 1373 1376 1392 1410 1409 1408 1411 1415 1422 1362 1253 1140 1091 -9999 -9999 -9999 -9999 -9999 -9999 -9999 -9999 -9999 -9999 -9999 -9999 -9999 -9999 -9999 -9999 -9999 -9999 -9999 -9999 -9999 -9999 -9999 -9999 -9999 -9999 -9999 -9999 -9999 -9999 -9999 -9999 -9999 -9999 -9999 -9999 -9999 -9999 -9999
-9999 -9999 -9999 -9999 -9999 -9999 -9999 -9999 -9999 -9999 -9999 -9999 -9999 -9999 -9999 -9999 -9999 -9999 -9999 -9999 -9999 -9999 -9999 -9999 -9999 -9999 -9999 -9999 -9999 -9999 -9999 -9999 -9999 -9999 -9999 -9999 -9999 -9999 -9999 -9999 -9999 -9999 -9999 1493 1479 1489 1439 1439 1405 1403 1398 1325 1246 1196 1156 1139 1145 1144 1170 1192 1164 1062 1001 987 1114 1018 968 960 952 978 961 928 896 906 871 839 834 821 817 813 811 795 778 759 748 734 740 720 711 713 714 714 722 719 710 711 710 700 694 679 684 695 680 690 680 680 670 643 623 623 623 632 651 642 625 624 631 639 654 678 723 774 793 724 707 726 654 652 681 722 743 766 789 845 866 891 902 902 900 902 926 931 941 955 961 977 978 985 1017 1022 1000 1005 1021 1015 1020 998 1016 1016 1011 1026 1025 1025 1014 1013 1016 1019 1020 992 1007 1010 1006 981 988 996 1019 1006 989 994 1012 1000 1001 1000 997 1002 1008 1010 1024 1023 1024 1036 1048 1062 1072 1064 1067 1068 1072 1090 1101 1103 1086 1107 1089 1084 1091 1098 1099 1097 1089 1101 1100 1090 1107 1108 1117 1105 1110 1106 1105 1104 1104 1102 1098 1081 1089 1095 1108 1105 1099 1117 1115 1104 1099 1080 1078 1066 1066 1064 1047 1042 1023 1051 1036 1027 1043 1029 1032 1038 1056 1053 1032 1048 1020 1017 1020 1045 1050 1033 1040 1037 1011 1019 1031 1020 1013 999 1010 1000 1003 981 978 1016 1017 1015 1031 1030 1015 1005 1017 1017 1009 1006 1019 1022 1037 1038 1026 1034 1024 1032 1018 1029 1029 1023 1018 1040 1026 1035 1050 1053 1062 1052 1049 1057 1066 1066 1073 1058 1050 1044 1031 1039 1027 1029 1029 1036 1043 1058 1062 1060 1062 1062 1063 1073 1078 1060 1055 1065 1056 1047 1064 1066 1068 1046 1040 1039 1030 1024 1032 1035 1031 1023 1026 1021 1019 1023 1024 1028 1029 1032 1038 1047 1059 1071 1068 1065 1070 1080 1083 1095 1106 1135 1160 1177 1156 1241 1188 1218 1121 1089 1071 1068 1076 1090 1102 1109 1221 1118 1096 1105 1119 1143 1282 1190 1182 1207 1227 1284 1192 1175 1186 1215 1413 1252 1238 1212 1243 1248 1251 1242 1231 1222 1216 1208 1197 1188 1186 1178 1176 1177 1193 1189 1185 1172 1160 1152 1142 1147 1157 1166 1158 1152 1150 1151 1156 1158 1163 1169 1166 1163 1165 1170 1170 1166 1167 1168 1169 1171 1178 1172 1173 1174 1177 1183 1189 1189 1193 1197 1203 1208 1202 1211 1215 1212 1215 1223 1222 1208 1210 1215 1214 1223 1217 1208 1197 1187 1183 1187 1193 1195 1194 1197 1207 1217 1225 1227 1232 1236 1252 1240 1245 1251 1259 1260 1267 1276 1278 1281 1276 1282 1282 1275 1275 1280 1285 1293 1304 1311 1324 1333 1327 1334 1350 1366 1364 1380 1395 1394 1402 1388 1390 1409 1428 1350 1217 1133 1090 -9999 -9999 -9999 -9999 -9999 -9999 -9999 -9999 -9999 -9999 -9999 -9999 -9999 -9999 -9999 -9999 -9999 -9999 -9999 -9999 -9999 -9999 -9999 -9999 -9999 -9999 -9999 -9999 -9999 -9999 -9999 -9999 -9999 -9999 -9999 -9999 -9999 -9999 -9999
-9999 -9999 -9999 -9999 -9999 -9999 -9999 -9999 -9999 -9999 -9999 -9999 -9999 -9999 -9999 -9999 -9999 -9999 -9999 -9999 -9999 -9999 -9999 -9999 -9999 -9999 -9999 -9999 -9999 -9999 -9999 -9999 -9999 -9999 -9999 -9999 -9999 -9999 -9999 -9999 -9999 -9999 1508 1478 1458 1450 1437 1427 1429 1396 1367 1305 1235 1191 1203 1181 1185 1157 1182 1221 1268 1100 1031 977 967 976 964 945 939 951 945 939 921 928 886 870 856 831 842 835 821 804 780 769 755 743 760 736 730 727 717 716 707 713 719 724 723 705 699 693 714 712 707 705 673 670 663 661 653 659 660 669 674 674 665 625 624 634 654 686 729 772 755 664 682 662 653 649 680 718 741 759 827 837 861 895 898 915 924 918 919 932 948 959 958 979 990 992 1003 993 995 993 990 1002 998 983 996 1000 1013 1015 1018 1019 991 1001 1008 1013 1039 1004 991 994 1004 979 974 986 1008 1004 997 980 993 989 992 999 1010 1016 1018 1016 1037 1044 1027 1041 1046 1062 1069 1068 1071 1071 1074 1092 1092 1073 1093 1097 1086 1071 1078 1079 1087 1098 1093 1086 1101 1086 1102 1105 1110 1111 1102 1108 1106 1087 1081 1077 1078 1098 1097 1095 1104 1099 1098 1110 1115 1116 1095 1099 1081 1068 1050 1042 1037 1040 1035 1052 1034 1027 1043 1036 1043 1058 1067 1050 1038 1031 1025 1040 1027 1036 1046 1047 1032 1035 1018 1019 1030 1025 1016 1013 1023 1019 1009 996 997 977 1005 1007 1015 1019 1025 1017 1021 1025 1018 1015 1011 1031 1040 1039 1047 1035 1038 1041 1035 1025 1037 1034 1023 1021 1030 1041 1041 1041 1043 1037 1047 1047 1051 1061 1070 1063 1054 1045 1037 1042 1039 1043 1026 1030 1047 1055 1043 1056 1066 1069 1068 1076 1081 1078 1070 1070 1057 1049 1071 1074 1068 1053 1039 1035 1024 1036 1039 1037 1030 1028 1031 1028 1022 1021 1021 1024 1027 1029 1032 1044 1055 1060 1056 1068 1080 1093 1095 1103 1112 1122 1128 1133 1160 1188 1303 1174 1107 1070 1065 1078 1076 1079 1083 1087 1111 1123 1124 1111 1115 1194 1353 1193 1233 1264 1254 1243 1205 1184 1260 1510 1584 1260 1219 1210 1226 1236 1265 1265 1245 1229 1214 1211 1205 1198 1182 1183 1188 1197 1190 1184 1185 1177 1162 1157 1142 1142 1161 1166 1158 1150 1150 1147 1152 1155 1165 1169 1164 1159 1164 1166 1164 1164 1163 1165 1165 1168 1168 1165 1167 1168 1170 1176 1181 1183 1185 1188 1192 1199 1196 1196 1204 1209 1208 1216 1218 1204 1201 1204 1207 1211 1213 1206 1200 1191 1181 1184 1186 1189 1193 1203 1212 1221 1227 1234 1240 1250 1254 1246 1249 1256 1265 1263 1265 1267 1271 1271 1268 1267 1270 1271 1279 1283 1284 1286 1305 1319 1328 1316 1315 1326 1337 1348 1374 1385 1383 1377 1389 1385 1393 1417 1418 1444 1269 1220 1128 -9999 -9999 -9999 -9999 -9999 -9999 -9999 -9999 -9999 -9999 -9999 -9999 -9999 -9999 -9999 -9999 -9999 -9999 -9999 -9999 -9999 -9999 -9999 -9999 -9999 -9999 -9999 -9999 -9999 -9999 -9999 -9999 -9999 -9999 -9999 -9999 -9999 -9999 -9999
-9999 -9999 -9999 -9999 -9999 -9999 -9999 -9999 -9999 -9999 -9999 -9999 -9999 -9999 -9999 -9999 -9999 -9999 -9999 -9999 -9999 -9999 -9999 -9999 -9999 -9999 -9999 -9999 -9999 -9999 -9999 -9999 -9999 -9999 -9999 -9999 -9999 -9999 -9999 -9999 -9999 -9999 1464 1450 1442 1443 1431 1406 1399 1376 1341 1283 1224 1227 1218 1210 1215 1186 1195 1238 1258 1093 1027 1003 978 968 971 948 924 950 961 937 946 939 889 884 864 850 858 834 812 810 813 795 780 767 753 733 720 709 701 695 693 688 695 710 721 722 713 707 706 704 700 682 664 660 654 648 650 651 659 660 669 674 657 638 624 633 656 682 773 758 732 653 651 642 644 648 677 702 759 772 799 829 875 881 883 903 900 915 933 933 943 952 962 953 946 969 980 962 969 964 970 997 991 971 979 989 998 1017 1014 992 977 984 989 1009 1022 1015 998 985 984 982 964 977 984 987 989 978 994 996 1006 1014 1025 1031 1039 1030 1042 1035 1053 1035 1059 1056 1071 1080 1077 1064 1066 1083 1080 1066 1079 1078 1079 1065 1067 1059 1087 1102 1101 1101 1083 1102 1090 1100 1104 1097 1089 1103 1107 1099 1100 1089 1082 1081 1085 1093 1096 1088 1099 1104 1105 1120 1101 1088 1064 1057 1064 1053 1045 1038 1051 1051 1036 1029 1049 1048 1060 1066 1068 1052 1050 1023 1024 1039 1031 1040 1051 1052 1047 1026 1019 1039 1039 1038 1033 1023 1035 1015 1026 1020 1001 983 979 1002 1006 1011 1030 1026 1048 1045 1022 1029 1024 1019 1020 1031 1050 1044 1045 1045 1022 1031 1039 1038 1036 1033 1022 1021 1022 1027 1030 1032 1037 1040 1044 1051 1066 1069 1052 1057 1039 1045 1046 1051 1036 1028 1040 1032 1038 1058 1061 1051 1063 1074 1066 1075 1077 1071 1058 1069 1071 1065 1059 1049 1042 1030 1041 1049 1046 1034 1032 1037 1039 1034 1032 1025 1021 1022 1025 1027 1033 1038 1049 1055 1051 1061 1077 1082 1088 1105 1108 1111 1114 1142 1143 1109 1148 1108 1085 1063 1067 1089 1094 1082 1087 1090 1102 1139 1170 1129 1337 1310 1166 1174 1265 1438 1278 1365 1223 1194 1247 1317 1558 1233 1208 1200 1212 1223 1247 1270 1250 1230 1218 1207 1198 1193 1186 1199 1200 1192 1179 1169 1172 1169 1166 1151 1140 1142 1154 1159 1158 1148 1148 1147 1147 1152 1160 1165 1163 1158 1162 1163 1159 1161 1161 1160 1161 1164 1166 1163 1163 1164 1169 1171 1176 1178 1178 1181 1185 1189 1188 1193 1206 1204 1211 1210 1215 1208 1195 1198 1199 1202 1208 1201 1196 1187 1180 1183 1187 1193 1200 1205 1214 1218 1227 1232 1240 1250 1257 1264 1257 1255 1252 1254 1259 1263 1261 1256 1258 1264 1266 1277 1287 1298 1288 1289 1292 1295 1300 1311 1328 1332 1342 1355 1365 1383 1365 1363 1373 1388 1400 1421 1437 1419 1243 1224 1149 -9999 -9999 -9999 -9999 -9999 -9999 -9999 -9999 -9999 -9999 -9999 -9999 -9999 -9999 -9999 -9999 -9999 -9999 -9999 -9999 -9999 -9999 -9999 -9999 -9999 -9999 -9999 -9999 -9999 -9999 -9999 -9999 -9999 -9999 -9999 -9999 -9999 -9999 -9999
-9999 -9999 -9999 -9999 -9999 -9999 -9999 -9999 -9999 -9999 -9999 -9999 -9999 -9999 -9999 -9999 -9999 -9999 -9999 -9999 -9999 -9999 -9999 -9999 -9999 -9999 -9999 -9999 -9999 -9999 -9999 -9999 -9999 -9999 -9999 -9999 -9999 -9999 -9999 -9999 -9999 -9999 1481 1453 1440 1436 1417 1399 1389 1312 1297 1266 1240 1248 1229 1250 1200 1165 1197 1190 1260 1152 1029 1017 976 945 943 936 922 941 942 933 950 935 916 904 909 907 837 823 822 796 784 771 786 786 761 721 715 709 704 699 700 694 685 680 704 728 721 716 701 688 685 674 669 662 657 646 643 644 646 646 642 664 658 652 623 633 653 708 760 726 675 647 643 642 651 660 662 703 735 759 805 833 853 862 881 908 893 913 912 912 920 936 959 932 929 940 959 946 945 955 983 993 970 962 975 993 1005 1008 981 972 979 971 989 1002 1012 998 1009 993 969 975 958 981 985 969 974 968 983 992 1005 1008 1022 1024 1042 1035 1047 1053 1040 1055 1042 1050 1049 1069 1058 1050 1055 1076 1050 1056 1068 1064 1061 1053 1058 1072 1094 1109 1103 1091 1082 1102 1081 1099 1104 1095 1085 1096 1103 1101 1099 1087 1091 1080 1077 1097 1100 1085 1093 1102 1106 1118 1102 1088 1067 1078 1064 1061 1053 1055 1076 1057 1032 1033 1047 1058 1073 1072 1051 1045 1050 1026 1039 1046 1061 1037 1051 1036 1025 1019 1022 1044 1044 1052 1050 1034 1036 1031 1026 1013 1021 1018 1014 989 1008 1017 1025 1046 1045 1041 1039 1038 1037 1018 1034 1045 1052 1059 1047 1048 1038 1030 1042 1052 1039 1030 1026 1033 1028 1025 1042 1051 1049 1037 1037 1038 1057 1066 1061 1069 1052 1061 1057 1064 1049 1028 1043 1046 1039 1048 1045 1056 1053 1058 1059 1074 1081 1067 1074 1069 1051 1055 1048 1043 1034 1041 1053 1058 1043 1040 1042 1043 1049 1039 1036 1032 1028 1024 1023 1027 1030 1034 1037 1042 1047 1065 1082 1064 1079 1081 1090 1094 1113 1128 1108 1086 1081 1086 1068 1060 1080 1081 1106 1105 1098 1096 1099 1115 1244 1194 1192 1278 1161 1189 1250 1381 1357 1356 1220 1193 1208 1242 1235 1211 1189 1199 1213 1234 1252 1277 1253 1237 1229 1215 1209 1211 1203 1195 1203 1192 1177 1163 1156 1156 1150 1147 1141 1137 1148 1157 1160 1150 1146 1144 1144 1147 1159 1161 1159 1154 1157 1155 1157 1157 1157 1158 1160 1161 1161 1158 1158 1160 1164 1169 1170 1170 1170 1171 1175 1180 1183 1188 1200 1198 1206 1208 1207 1208 1198 1190 1194 1195 1204 1190 1189 1184 1179 1183 1195 1201 1206 1205 1212 1219 1232 1233 1238 1242 1245 1257 1247 1243 1244 1247 1248 1248 1253 1256 1258 1266 1272 1282 1290 1303 1313 1307 1306 1297 1299 1305 1311 1315 1329 1342 1350 1380 1350 1365 1387 1397 1402 1436 1444 1435 1240 1220 1130 -9999 -9999 -9999 -9999 -9999 -9999 -9999 -9999 -9999 -9999 -9999 -9999 -9999 -9999 -9999 -9999 -9999 -9999 -9999 -9999 -9999 -9999 -9999 -9999 -9999 -9999 -9999 -9999 -9999 -9999 -9999 -9999 -9999 -9999 -9999 -9999 -9999 -9999 -9999
-9999 -9999 -9999 -9999 -9999 -9999 -9999 -9999 -9999 -9999 -9999 -9999 -9999 -9999 -9999 -9999 -9999 -9999 -9999 -9999 -9999 -9999 -9999 -9999 -9999 -9999 -9999 -9999 -9999 -9999 -9999 -9999 -9999 -9999 -9999 -9999 -9999 -9999 -9999 -9999 -9999 -9999 1479 1483 1454 1436 1404 1380 1364 1334 1331 1295 1280 1260 1271 1235 1220 1142 1156 1150 1192 1160 1040 1029 969 948 940 920 911 932 930 914 954 950 921 888 888 862 847 819 805 789 772 761 755 762 743 724 718 716 703 703 702 700 698 677 676 711 709 698 697 693 680 664 654 649 648 646 643 641 642 638 636 642 651 648 623 631 655 737 740 670 644 641 641 644 669 689 674 704 723 764 801 831 874 872 897 892 884 896 906 918 931 942 952 936 923 936 950 931 929 954 975 971 954 958 965 975 981 983 980 967 963 963 977 992 1010 1001 989 997 982 967 954 972 968 955 955 963 971 985 995 1001 1019 1027 1044 1056 1045 1064 1061 1062 1053 1042 1035 1039 1048 1048 1054 1069 1051 1046 1055 1040 1050 1050 1053 1076 1093 1104 1103 1097 1092 1080 1094 1091 1098 1082 1087 1103 1104 1095 1097 1093 1083 1073 1095 1081 1074 1078 1099 1101 1103 1110 1109 1094 1079 1082 1069 1059 1065 1063 1086 1055 1044 1043 1060 1062 1073 1066 1037 1035 1029 1035 1053 1053 1055 1045 1057 1039 1045 1030 1039 1039 1041 1053 1047 1047 1041 1029 1015 1009 1025 1022 1013 996 981 1008 1001 1027 1021 1043 1046 1041 1043 1031 1043 1047 1048 1034 1045 1051 1041 1038 1040 1050 1036 1044 1031 1050 1043 1036 1034 1051 1063 1047 1062 1041 1044 1053 1073 1059 1048 1063 1069 1064 1044 1029 1033 1055 1057 1043 1054 1067 1074 1065 1065 1071 1088 1086 1077 1062 1056 1044 1042 1039 1039 1049 1065 1058 1040 1050 1047 1054 1057 1047 1040 1036 1033 1028 1022 1025 1029 1032 1035 1046 1063 1071 1070 1058 1066 1067 1076 1105 1108 1113 1096 1088 1074 1061 1061 1085 1092 1098 1102 1108 1107 1110 1103 1109 1122 1122 1132 1144 1171 1206 1329 1457 1303 1284 1262 1205 1209 1220 1230 1208 1186 1185 1204 1227 1290 1307 1261 1255 1242 1223 1228 1222 1199 1202 1216 1213 1175 1162 1154 1152 1145 1141 1138 1137 1139 1156 1160 1155 1145 1143 1142 1145 1154 1159 1155 1152 1154 1153 1151 1153 1154 1154 1157 1158 1156 1153 1155 1156 1161 1163 1164 1165 1166 1170 1175 1177 1185 1191 1195 1194 1206 1205 1201 1208 1210 1192 1186 1186 1195 1187 1177 1177 1178 1181 1188 1192 1197 1204 1213 1221 1227 1224 1230 1232 1232 1244 1240 1235 1240 1240 1243 1247 1259 1270 1272 1271 1278 1281 1285 1299 1313 1330 1316 1310 1314 1312 1316 1324 1324 1331 1337 1342 1345 1368 1372 1376 1390 1409 1422 1430 1262 1165 1096 -9999 -9999 -9999 -9999 -9999 -9999 -9999 -9999 -9999 -9999 -9999 -9999 -9999 -9999 -9999 -9999 -9999 -9999 -9999 -9999 -9999 -9999 -9999 -9999 -9999 -9999 -9999 -9999 -9999 -9999 -9999 -9999 -9999 -9999 -9999 -9999 -9999 -9999 -9999
-9999 -9999 -9999 -9999 -9999 -9999 -9999 -9999 -9999 -9999 -9999 -9999 -9999 -9999 -9999 -9999 -9999 -9999 -9999 -9999 -9999 -9999 -9999 -9999 -9999 -9999 -9999 -9999 -9999 -9999 -9999 -9999 -9999 -9999 -9999 -9999 -9999 -9999 -9999 -9999 1492 1492 1469 1451 1445 1439 1407 1394 1373 1367 1343 1313 1269 1245 1313 1247 1185 1140 1112 1158 1192 1155 1058 1057 983 964 945 924 903 920 916 901 924 936 935 867 877 855 840 832 819 793 791 767 751 744 737 729 737 745 728 706 703 691 695 691 686 692 677 666 678 680 674 658 650 650 647 643 644 642 639 639 634 640 640 635 624 638 657 728 678 641 635 637 637 714 724 708 708 732 753 770 802 842 855 862 882 868 874 887 885 910 929 922 926 906 914 936 927 912 934 957 976 957 946 947 946 963 964 981 963 966 953 967 985 996 985 986 975 989 979 972 947 959 948 960 976 978 988 1003 1010 1020 1023 1050 1043 1049 1066 1062 1050 1041 1032 1029 1024 1034 1032 1027 1043 1049 1032 1039 1036 1042 1048 1058 1071 1087 1108 1109 1100 1102 1099 1090 1085 1086 1088 1076 1094 1095 1104 1101 1080 1091 1080 1070 1078 1071 1080 1077 1086 1097 1104 1122 1123 1097 1091 1087 1085 1060 1077 1074 1078 1064 1045 1045 1061 1072 1077 1054 1045 1041 1030 1050 1052 1066 1063 1064 1059 1057 1045 1027 1027 1053 1056 1046 1038 1032 1023 1016 1016 1021 1023 1001 1001 996 994 1002 1017 1009 1031 1036 1038 1042 1050 1052 1046 1029 1040 1032 1038 1042 1054 1042 1041 1060 1058 1046 1042 1053 1038 1049 1047 1039 1058 1051 1064 1052 1054 1045 1064 1065 1062 1058 1069 1056 1047 1042 1035 1043 1056 1060 1056 1065 1077 1083 1086 1069 1079 1084 1068 1058 1058 1063 1057 1052 1044 1059 1067 1055 1045 1063 1054 1059 1057 1050 1046 1045 1037 1031 1023 1023 1026 1032 1039 1051 1057 1058 1048 1067 1082 1089 1094 1103 1099 1114 1096 1079 1069 1062 1068 1078 1100 1206 1128 1116 1116 1136 1127 1112 1126 1140 1134 1139 1186 1205 1477 1457 1446 1243 1218 1203 1207 1218 1224 1203 1177 1186 1216 1223 1246 1284 1257 1245 1242 1227 1228 1215 1200 1208 1209 1190 1169 1167 1167 1154 1152 1147 1142 1135 1137 1151 1158 1159 1145 1143 1141 1141 1147 1155 1153 1151 1153 1151 1150 1149 1150 1152 1153 1155 1153 1152 1150 1153 1158 1159 1159 1161 1164 1166 1177 1182 1185 1187 1190 1189 1202 1199 1196 1206 1210 1196 1182 1180 1184 1175 1176 1178 1181 1183 1189 1198 1206 1212 1211 1213 1219 1217 1218 1220 1224 1231 1231 1234 1236 1238 1245 1250 1261 1272 1281 1281 1284 1289 1293 1301 1316 1328 1327 1333 1337 1336 1322 1327 1342 1342 1335 1346 1353 1357 1366 1375 1387 1403 1417 1414 1190 1101 -9999 -9999 -9999 -9999 -9999 -9999 -9999 -9999 -9999 -9999 -9999 -9999 -9999 -9999 -9999 -9999 -9999 -9999 -9999 -9999 -9999 -9999 -9999 -9999 -9999 -9999 -9999 -9999 -9999 -9999 -9999 -9999 -9999 -9999 -9999 -9999 -9999 -9999 -9999 -9999
-9999 -9999 -9999 -9999 -9999 -9999 -9999 -9999 -9999 -9999 -9999 -9999 -9999 -9999 -9999 -9999 -9999 -9999 -9999 -9999 -9999 -9999 -9999 -9999 -9999 -9999 -9999 -9999 -9999 -9999 -9999 -9999 -9999 -9999 -9999 -9999 -9999 -9999 -9999 -9999 1498 1477 1470 1444 1447 1439 1415 1389 1376 1364 1333 1284 1263 1243 1217 1206 1193 1154 1096 1098 1144 1181 1042 1049 1008 977 947 937 904 889 893 890 900 907 899 880 850 839 832 828 825 790 773 762 760 778 756 745 731 725 729 692 688 675 677 674 669 731 665 663 660 667 664 662 653 650 647 642 643 643 661 637 635 634 634 627 625 624 670 673 644 634 638 648 703 716 718 736 733 744 763 796 828 832 848 882 867 867 884 896 901 916 909 902 907 896 904 921 908 915 940 974 960 940 932 930 944 957 975 971 957 945 947 959 973 986 969 974 977 966 977 957 943 945 954 971 992 994 1000 1001 1006 1004 1008 1019 1027 1044 1062 1044 1033 1030 1027 1017 1016 1012 1022 1024 1035 1044 1029 1039 1063 1056 1060 1068 1079 1082 1103 1099 1091 1084 1089 1099 1082 1085 1075 1094 1095 1100 1101 1087 1079 1095 1094 1089 1069 1077 1081 1099 1095 1103 1112 1125 1124 1105 1119 1093 1088 1072 1073 1095 1085 1063 1049 1044 1050 1062 1073 1066 1065 1052 1045 1038 1053 1067 1071 1067 1057 1044 1036 1039 1038 1059 1065 1064 1056 1026 1038 1041 1025 1019 999 1018 1020 1009 1008 983 999 1009 1024 1015 1024 1034 1040 1037 1032 1016 1021 1031 1025 1041 1042 1055 1048 1061 1061 1062 1052 1056 1055 1056 1046 1043 1060 1062 1066 1055 1065 1048 1061 1074 1066 1054 1066 1069 1056 1048 1040 1038 1038 1050 1061 1063 1062 1075 1083 1089 1092 1090 1074 1071 1066 1055 1060 1055 1046 1063 1071 1064 1059 1067 1059 1065 1056 1042 1039 1039 1035 1028 1027 1023 1026 1034 1037 1040 1050 1042 1045 1067 1076 1092 1110 1120 1089 1118 1103 1077 1059 1060 1078 1085 1121 1128 1181 1150 1126 1141 1138 1129 1137 1198 1140 1147 1173 1194 1599 1622 1526 1235 1208 1189 1188 1208 1237 1187 1173 1187 1208 1236 1314 1300 1264 1243 1231 1219 1213 1205 1213 1209 1197 1188 1174 1182 1178 1160 1160 1162 1148 1134 1133 1142 1150 1159 1146 1140 1140 1139 1142 1151 1152 1150 1152 1148 1147 1147 1148 1149 1152 1153 1151 1148 1147 1151 1151 1153 1155 1158 1162 1170 1178 1177 1180 1185 1187 1186 1199 1195 1193 1195 1206 1198 1189 1179 1175 1175 1176 1180 1182 1185 1186 1190 1197 1203 1202 1205 1207 1209 1212 1216 1220 1225 1226 1229 1233 1241 1247 1256 1263 1269 1283 1290 1295 1299 1303 1317 1312 1314 1314 1323 1325 1334 1350 1337 1341 1350 1343 1359 1372 1368 1377 1392 1402 1404 1417 1325 1163 1107 -9999 -9999 -9999 -9999 -9999 -9999 -9999 -9999 -9999 -9999 -9999 -9999 -9999 -9999 -9999 -9999 -9999 -9999 -9999 -9999 -9999 -9999 -9999 -9999 -9999 -9999 -9999 -9999 -9999 -9999 -9999 -9999 -9999 -9999 -9999 -9999 -9999 -9999 -9999 -9999
-9999 -9999 -9999 -9999 -9999 -9999 -9999 -9999 -9999 -9999 -9999 -9999 -9999 -9999 -9999 -9999 -9999 -9999 -9999 -9999 -9999 -9999 -9999 -9999 -9999 -9999 -9999 -9999 -9999 -9999 -9999 -9999 -9999 -9999 -9999 -9999 -9999 -9999 -9999 -9999 1505 1463 1439 1432 1430 1448 1406 1387 1354 1369 1329 1298 1300 1223 1217 1192 1162 1178 1097 1070 1099 1132 1029 1016 997 950 935 917 902 895 883 866 877 910 915 903 856 852 836 815 813 789 776 800 792 792 764 735 718 705 699 690 687 683 679 678 670 662 667 664 662 659 661 654 652 648 645 644 673 697 642 640 632 633 634 625 625 626 661 655 644 633 640 648 652 674 684 684 692 720 774 778 815 840 854 874 852 855 885 897 906 911 894 887 898 905 884 891 894 914 954 948 942 914 929 941 953 964 976 966 956 939 964 972 986 975 963 954 960 947 961 953 940 958 952 962 966 975 976 989 986 989 1011 1029 1035 1038 1056 1040 1027 1019 1013 1012 1011 1030 1014 1019 1021 1030 1025 1040 1046 1045 1055 1067 1067 1083 1107 1105 1093 1092 1087 1081 1077 1075 1073 1091 1078 1093 1093 1100 1095 1092 1080 1077 1068 1082 1087 1089 1102 1106 1112 1113 1123 1117 1123 1119 1101 1081 1091 1099 1080 1067 1050 1044 1066 1064 1084 1078 1067 1057 1051 1047 1043 1066 1080 1069 1054 1041 1040 1057 1053 1062 1068 1053 1044 1049 1048 1045 1029 1021 1002 1015 1035 1027 1013 1000 988 997 1009 1024 1034 1023 1023 1030 1019 1022 1006 1015 1020 1027 1043 1046 1056 1067 1056 1058 1057 1058 1065 1070 1050 1053 1051 1064 1074 1064 1067 1057 1053 1074 1076 1083 1065 1069 1060 1050 1049 1046 1054 1042 1044 1060 1054 1057 1077 1080 1084 1086 1085 1072 1069 1062 1063 1053 1049 1059 1069 1056 1068 1071 1074 1070 1053 1043 1039 1034 1033 1035 1032 1029 1025 1026 1034 1037 1037 1039 1061 1065 1059 1078 1087 1086 1092 1113 1096 1080 1057 1068 1084 1275 1348 1361 1348 1165 1166 1212 1185 1164 1184 1333 1182 1155 1180 1194 1582 1801 1435 1260 1212 1180 1178 1192 1204 1194 1169 1188 1211 1261 1482 1284 1264 1254 1242 1220 1222 1218 1219 1215 1196 1189 1184 1178 1173 1167 1161 1150 1140 1136 1131 1133 1144 1153 1154 1139 1138 1139 1139 1146 1145 1150 1151 1147 1145 1146 1146 1147 1150 1150 1148 1144 1145 1147 1148 1150 1153 1157 1162 1171 1172 1173 1177 1181 1179 1182 1195 1191 1188 1193 1199 1201 1190 1183 1171 1172 1173 1180 1189 1194 1197 1190 1194 1196 1198 1201 1205 1212 1215 1217 1224 1226 1231 1232 1234 1244 1250 1256 1269 1277 1278 1277 1284 1293 1305 1306 1297 1304 1304 1311 1319 1336 1353 1353 1362 1367 1363 1354 1390 1376 1384 1397 1412 1430 1390 1305 1134 1074 -9999 -9999 -9999 -9999 -9999 -9999 -9999 -9999 -9999 -9999 -9999 -9999 -9999 -9999 -9999 -9999 -9999 -9999 -9999 -9999 -9999 -9999 -9999 -9999 -9999 -9999 -9999 -9999 -9999 -9999 -9999 -9999 -9999 -9999 -9999 -9999 -9999 -9999 -9999 -9999
-9999 -9999 -9999 -9999 -9999 -9999 -9999 -9999 -9999 -9999 -9999 -9999 -9999 -9999 -9999 -9999 -9999 -9999 -9999 -9999 -9999 -9999 -9999 -9999 -9999 -9999 -9999 -9999 -9999 -9999 -9999 -9999 -9999 -9999 -9999 -9999 -9999 -9999 -9999 -9999 1508 1490 1466 1455 1436 1427 1397 1394 1370 1345 1341 1296 1246 1257 1240 1203 1198 1191 1123 1092 1028 991 1025 996 979 950 932 896 881 876 872 860 874 875 974 918 878 863 845 827 800 786 792 785 790 765 745 737 730 713 703 711 697 699 683 673 673 672 665 668 664 658 657 653 650 647 647 665 674 678 654 639 635 631 630 626 624 645 655 642 630 630 640 694 672 679 673 683 698 729 763 796 815 835 861 858 841 863 881 902 893 888 886 873 897 895 886 897 919 943 938 931 915 918 937 960 964 969 968 966 944 935 959 965 977 972 962 951 937 947 949 938 949 979 982 968 969 971 982 998 990 998 1011 1024 1038 1050 1053 1032 1022 1017 1002 1017 1026 1026 1039 1035 1032 1030 1024 1032 1035 1055 1058 1052 1073 1082 1122 1111 1103 1100 1088 1098 1097 1092 1081 1074 1090 1090 1087 1096 1086 1092 1093 1080 1070 1072 1080 1089 1104 1103 1107 1119 1130 1117 1109 1115 1112 1094 1102 1114 1087 1073 1052 1046 1071 1070 1085 1092 1071 1052 1071 1065 1055 1054 1074 1056 1053 1057 1039 1054 1069 1065 1071 1063 1057 1054 1041 1028 1035 1031 999 1025 1035 1034 1016 1010 997 990 1006 1021 1022 1009 1007 1029 1020 1007 1009 1014 1025 1031 1029 1037 1055 1056 1042 1048 1040 1053 1054 1055 1065 1074 1070 1075 1080 1076 1078 1068 1055 1059 1070 1083 1070 1079 1061 1063 1055 1059 1064 1064 1052 1065 1066 1060 1070 1072 1079 1087 1095 1091 1086 1070 1061 1064 1052 1059 1072 1056 1083 1082 1078 1069 1050 1048 1048 1045 1046 1043 1039 1035 1028 1026 1032 1033 1033 1034 1046 1054 1055 1073 1066 1084 1093 1095 1088 1072 1057 1070 1086 1147 1419 1598 1429 1203 1226 1278 1472 1192 1387 1241 1166 1172 1190 1195 1364 1585 1603 1234 1214 1175 1167 1174 1172 1171 1165 1190 1239 1236 1270 1328 1253 1240 1233 1226 1231 1231 1218 1210 1200 1195 1192 1184 1177 1170 1160 1145 1147 1143 1131 1133 1141 1152 1155 1143 1138 1137 1137 1142 1143 1151 1149 1144 1143 1142 1143 1145 1147 1149 1145 1142 1142 1144 1146 1149 1152 1158 1160 1166 1168 1169 1173 1173 1176 1183 1191 1186 1185 1189 1198 1197 1185 1175 1170 1171 1172 1180 1192 1197 1202 1200 1197 1199 1203 1207 1217 1219 1226 1228 1228 1230 1227 1226 1229 1234 1244 1250 1258 1286 1268 1270 1287 1295 1302 1291 1290 1302 1312 1316 1324 1336 1346 1359 1386 1374 1369 1363 1396 1406 1396 1401 1425 1426 1372 1346 1141 1089 1056 -9999 -9999 -9999 -9999 -9999 -9999 -9999 -9999 -9999 -9999 -9999 -9999 -9999 -9999 -9999 -9999 -9999 -9999 -9999 -9999 -9999 -9999 -9999 -9999 -9999 -9999 -9999 -9999 -9999 -9999 -9999 -9999 -9999 -9999 -9999 -9999 -9999 -9999 -9999
-9999 -9999 -9999 -9999 -9999 -9999 -9999 -9999 -9999 -9999 -9999 -9999 -9999 -9999 -9999 -9999 -9999 -9999 -9999 -9999 -9999 -9999 -9999 -9999 -9999 -9999 -9999 -9999 -9999 -9999 -9999 -9999 -9999 -9999 -9999 -9999 -9999 -9999 -9999 -9999 1494 1489 1452 1458 1415 1404 1389 1376 1370 1358 1352 1341 1262 1296 1303 1252 1215 1189 1163 1114 1045 989 987 975 968 943 931 904 890 886 887 877 857 855 912 898 870 865 859 839 799 786 787 770 761 749 740 745 721 722 718 712 709 690 684 692 681 678 672 669 666 661 659 653 649 650 674 664 648 644 644 639 633 627 624 624 625 627 627 629 629 635 654 685 719 723 728 722 719 737 782 803 796 819 860 843 842 859 876 903 872 879 883 860 881 860 877 895 933 929 931 902 915 937 937 943 940 954 956 954 943 940 954 970 981 957 941 945 929 929 934 949 963 977 990 988 984 998 991 1009 1010 1008 1008 1021 1028 1044 1051 1029 1026 1003 1028 1033 1037 1044 1048 1041 1050 1045 1037 1045 1034 1044 1053 1062 1070 1086 1105 1114 1112 1099 1097 1088 1086 1080 1072 1079 1088 1074 1079 1091 1085 1077 1082 1076 1067 1074 1088 1088 1082 1087 1104 1114 1134 1114 1105 1111 1110 1109 1112 1101 1084 1069 1060 1054 1061 1075 1090 1093 1065 1055 1072 1059 1052 1069 1074 1069 1067 1060 1045 1058 1066 1051 1064 1057 1046 1039 1043 1032 1008 1005 1006 1016 1026 1044 1036 1015 1005 993 997 1017 1005 1001 1004 1020 1016 1018 1003 1007 1013 1016 1040 1044 1055 1056 1039 1032 1049 1052 1038 1046 1056 1071 1067 1061 1061 1070 1072 1076 1063 1069 1066 1089 1086 1080 1067 1053 1065 1053 1071 1069 1060 1060 1071 1076 1084 1081 1085 1083 1090 1089 1089 1085 1076 1069 1067 1067 1075 1057 1078 1078 1064 1066 1053 1054 1063 1063 1060 1053 1048 1033 1029 1029 1026 1029 1030 1034 1038 1043 1044 1053 1056 1089 1093 1084 1069 1056 1066 1081 1099 1158 1412 1706 1534 1330 1360 1449 1621 1658 1686 1471 1187 1179 1409 1352 1432 1531 1324 1262 1203 1175 1161 1154 1155 1160 1163 1247 1428 1468 1275 1269 1254 1241 1244 1237 1260 1250 1255 1218 1199 1194 1195 1189 1175 1170 1154 1149 1158 1150 1131 1130 1132 1143 1150 1148 1136 1136 1134 1137 1140 1145 1147 1142 1140 1140 1142 1144 1146 1144 1140 1140 1141 1142 1144 1146 1151 1155 1159 1162 1163 1165 1170 1169 1174 1183 1186 1179 1182 1187 1193 1198 1187 1174 1169 1170 1181 1187 1190 1191 1199 1205 1206 1213 1214 1217 1222 1230 1230 1225 1221 1218 1220 1224 1232 1237 1244 1246 1258 1260 1273 1279 1289 1298 1294 1284 1284 1303 1311 1311 1320 1341 1335 1347 1363 1377 1384 1381 1384 1413 1417 1403 1341 1376 1357 1207 1173 1121 1068 1064 -9999 -9999 -9999 -9999 -9999 -9999 -9999 -9999 -9999 -9999 -9999 -9999 -9999 -9999 -9999 -9999 -9999 -9999 -9999 -9999 -9999 -9999 -9999 -9999 -9999 -9999 -9999 -9999 -9999 -9999 -9999 -9999 -9999 -9999 -9999 -9999 -9999 -9999
-9999 -9999 -9999 -9999 -9999 -9999 -9999 -9999 -9999 -9999 -9999 -9999 -9999 -9999 -9999 -9999 -9999 -9999 -9999 -9999 -9999 -9999 -9999 -9999 -9999 -9999 -9999 -9999 -9999 -9999 -9999 -9999 -9999 -9999 -9999 -9999 -9999 -9999 -9999 1514 1492 1488 1474 1425 1417 1398 1386 1365 1355 1348 1338 1327 1263 1302 1312 1266 1240 1237 1149 1105 1049 1009 989 978 960 965 945 914 911 889 898 882 862 844 891 874 859 858 833 810 800 773 760 752 742 744 734 737 748 753 741 708 698 692 695 694 684 673 696 691 684 682 676 658 656 677 665 669 657 652 685 662 623 624 623 624 623 624 624 626 633 635 646 659 684 679 678 678 700 720 759 762 777 810 822 828 843 865 881 879 863 860 865 847 863 865 882 913 921 910 904 897 926 935 927 925 931 952 955 942 946 924 955 978 967 964 938 926 935 943 953 946 962 970 982 1003 996 1004 998 1008 1018 1023 1031 1036 1049 1045 1039 1023 1011 1002 1015 1025 1045 1058 1064 1061 1068 1054 1041 1055 1054 1041 1047 1057 1063 1082 1086 1104 1110 1117 1104 1094 1093 1082 1073 1067 1075 1074 1079 1090 1093 1088 1078 1072 1067 1077 1087 1081 1098 1098 1123 1108 1122 1110 1097 1087 1111 1118 1125 1090 1085 1076 1060 1067 1066 1071 1087 1083 1075 1079 1070 1066 1064 1059 1077 1086 1079 1067 1069 1072 1067 1044 1044 1063 1049 1040 1027 1018 1008 1006 1027 1022 1038 1046 1024 1023 1018 1002 989 987 988 994 994 1007 1018 1001 1011 1019 1013 1024 1031 1051 1059 1058 1042 1028 1036 1032 1038 1057 1060 1049 1067 1046 1045 1041 1061 1073 1081 1083 1071 1075 1090 1090 1072 1069 1070 1056 1066 1077 1067 1078 1080 1081 1083 1067 1063 1069 1082 1069 1076 1089 1086 1082 1080 1080 1075 1074 1078 1076 1075 1060 1064 1063 1077 1072 1065 1052 1047 1034 1032 1033 1028 1026 1037 1044 1045 1056 1065 1067 1070 1087 1096 1083 1065 1056 1064 1085 1098 1208 1457 1647 1436 1530 1538 1555 1634 1635 1689 1496 1179 1174 1368 1428 1648 1684 1319 1204 1184 1171 1152 1151 1157 1169 1172 1174 1398 1407 1291 1283 1270 1446 1266 1248 1267 1368 1405 1305 1217 1185 1180 1179 1171 1164 1154 1152 1152 1142 1137 1128 1129 1138 1148 1148 1134 1135 1133 1134 1137 1144 1144 1139 1138 1139 1142 1144 1145 1140 1136 1138 1139 1140 1143 1146 1149 1154 1157 1158 1160 1161 1164 1167 1172 1177 1182 1176 1179 1184 1189 1190 1180 1169 1166 1167 1169 1171 1176 1182 1190 1200 1207 1213 1208 1213 1217 1228 1222 1214 1213 1212 1217 1221 1224 1233 1243 1247 1251 1259 1270 1285 1288 1278 1279 1277 1289 1294 1299 1301 1315 1319 1339 1340 1356 1378 1392 1397 1400 1414 1409 1418 1419 1312 1224 1139 1173 1110 1086 1087 -9999 -9999 -9999 -9999 -9999 -9999 -9999 -9999 -9999 -9999 -9999 -9999 -9999 -9999 -9999 -9999 -9999 -9999 -9999 -9999 -9999 -9999 -9999 -9999 -9999 -9999 -9999 -9999 -9999 -9999 -9999 -9999 -9999 -9999 -9999 -9999 -9999 -9999
-9999 -9999 -9999 -9999 -9999 -9999 -9999 -9999 -9999 -9999 -9999 -9999 -9999 -9999 -9999 -9999 -9999 -9999 -9999 -9999 -9999 -9999 -9999 -9999 -9999 -9999 -9999 -9999 -9999 -9999 -9999 -9999 -9999 -9999 -9999 -9999 -9999 -9999 -9999 1528 1511 1499 1461 1423 1434 1421 1413 1380 1378 1356 1351 1335 1328 1314 1313 1313 1261 1197 1143 1097 1058 1007 1011 1013 982 977 946 937 907 891 872 866 857 840 828 844 849 852 835 810 780 772 772 763 754 757 752 775 755 768 721 714 708 727 715 704 704 707 718 706 702 701 679 665 666 683 678 675 660 669 689 671 623 623 623 619 619 624 624 627 643 656 655 652 657 662 666 682 691 715 750 765 776 794 804 821 848 865 861 880 861 840 835 847 858 872 895 900 902 883 888 911 928 906 927 912 926 942 948 941 922 932 939 962 964 967 951 921 940 947 960 964 963 966 981 998 1009 1018 1013 1020 1019 1030 1036 1034 1036 1042 1039 1030 1015 997 995 1011 1030 1037 1031 1047 1068 1068 1064 1050 1050 1065 1056 1057 1068 1079 1095 1103 1113 1103 1088 1098 1082 1081 1088 1078 1067 1073 1086 1084 1089 1082 1076 1071 1080 1084 1071 1079 1081 1087 1097 1115 1128 1107 1097 1095 1115 1116 1112 1107 1099 1083 1063 1057 1077 1084 1098 1087 1085 1071 1077 1057 1062 1075 1075 1086 1087 1081 1073 1073 1053 1051 1039 1056 1042 1032 1023 1014 1016 1011 1030 1042 1049 1042 1038 1031 1022 1016 987 1001 993 998 995 1006 1011 998 998 1000 1015 1029 1035 1050 1044 1031 1048 1033 1023 1033 1053 1059 1046 1041 1058 1050 1036 1045 1052 1066 1084 1081 1079 1078 1090 1089 1077 1070 1064 1074 1077 1077 1076 1075 1075 1078 1074 1055 1060 1074 1068 1075 1082 1084 1081 1073 1090 1092 1091 1086 1087 1083 1082 1065 1078 1076 1079 1077 1067 1053 1038 1049 1052 1038 1031 1027 1034 1043 1044 1054 1060 1074 1078 1087 1091 1079 1067 1054 1062 1082 1097 1224 1465 1301 1215 1407 1389 1410 1632 1613 1536 1204 1182 1160 1187 1257 1432 1557 1282 1196 1172 1158 1147 1143 1160 1192 1191 1178 1184 1212 1280 1420 1408 1477 1438 1269 1385 1495 1403 1363 1222 1188 1178 1168 1164 1160 1158 1161 1156 1152 1142 1128 1128 1134 1144 1146 1133 1135 1132 1134 1135 1144 1145 1138 1136 1137 1141 1143 1142 1137 1135 1136 1137 1139 1140 1145 1150 1153 1155 1155 1156 1157 1160 1162 1166 1176 1179 1174 1178 1184 1191 1192 1181 1171 1166 1166 1166 1175 1180 1188 1193 1199 1199 1198 1202 1207 1210 1221 1215 1211 1208 1218 1220 1225 1226 1229 1231 1235 1243 1251 1262 1266 1279 1276 1267 1272 1278 1285 1291 1299 1307 1324 1330 1327 1355 1359 1378 1374 1386 1385 1391 1405 1413 1357 1262 1200 1167 1193 1140 1078 1056 -9999 -9999 -9999 -9999 -9999 -9999 -9999 -9999 -9999 -9999 -9999 -9999 -9999 -9999 -9999 -9999 -9999 -9999 -9999 -9999 -9999 -9999 -9999 -9999 -9999 -9999 -9999 -9999 -9999 -9999 -9999 -9999 -9999 -9999 -9999 -9999 -9999
-9999 -9999 -9999 -9999 -9999 -9999 -9999 -9999 -9999 -9999 -9999 -9999 -9999 -9999 -9999 -9999 -9999 -9999 -9999 -9999 -9999 -9999 -9999 -9999 -9999 -9999 -9999 -9999 -9999 -9999 -9999 -9999 -9999 -9999 -9999 -9999 -9999 -9999 1543 1526 1493 1482 1466 1456 1450 1429 1423 1389 1383 1378 1369 1364 1335 1332 1335 1301 1212 1192 1191 1047 1028 1072 1041 1020 986 965 961 948 906 891 880 860 872 860 848 824 841 817 807 790 802 791 794 776 771 762 768 795 780 757 743 733 732 730 710 712 717 732 730 731 721 731 680 677 681 688 687 686 670 694 689 663 623 623 623 621 623 624 636 643 651 658 666 670 690 665 671 678 691 727 752 796 797 807 822 846 833 836 865 853 842 825 841 861 876 879 884 878 876 876 898 905 892 904 903 906 922 926 927 932 928 934 948 947 961 944 940 919 943 949 965 974 979 987 989 1004 990 1005 998 1004 997 1004 1005 1032 1027 1038 1033 1038 1021 1008 997 1013 1008 1019 1040 1044 1044 1069 1080 1069 1052 1060 1071 1062 1068 1082 1085 1099 1095 1107 1102 1081 1092 1090 1080 1083 1068 1078 1091 1076 1079 1084 1073 1066 1071 1066 1079 1079 1093 1097 1113 1106 1115 1104 1092 1081 1093 1108 1097 1111 1090 1079 1061 1063 1065 1082 1099 1085 1070 1068 1075 1060 1073 1065 1081 1095 1083 1078 1067 1055 1042 1035 1048 1029 1036 1017 1012 1011 1031 1014 1030 1042 1061 1056 1040 1024 1016 1005 1014 1010 1005 989 995 999 1003 992 1000 999 1006 1017 1027 1041 1035 1038 1041 1030 1018 1036 1040 1044 1028 1054 1046 1043 1029 1048 1059 1068 1066 1064 1062 1082 1088 1087 1085 1082 1072 1078 1078 1063 1074 1065 1054 1062 1072 1050 1059 1070 1060 1081 1082 1067 1072 1068 1080 1084 1091 1091 1087 1089 1075 1085 1087 1076 1067 1061 1054 1042 1052 1059 1054 1038 1032 1029 1029 1035 1040 1046 1056 1059 1070 1089 1093 1085 1064 1055 1051 1081 1094 1114 1433 1234 1132 1216 1145 1241 1517 1514 1376 1344 1157 1151 1209 1199 1216 1367 1329 1196 1172 1150 1141 1142 1169 1190 1182 1186 1189 1198 1205 1338 1380 1404 1521 1406 1475 1659 1640 1337 1207 1189 1175 1172 1176 1176 1178 1169 1161 1157 1151 1130 1126 1126 1144 1144 1136 1132 1131 1132 1135 1143 1144 1136 1134 1136 1139 1142 1139 1134 1134 1134 1136 1137 1140 1144 1148 1151 1152 1152 1153 1154 1156 1159 1166 1173 1178 1172 1176 1182 1188 1194 1189 1177 1164 1164 1163 1173 1180 1185 1194 1195 1189 1193 1197 1203 1213 1222 1213 1204 1207 1218 1228 1233 1237 1240 1240 1237 1240 1244 1250 1258 1263 1263 1267 1277 1286 1297 1301 1306 1318 1309 1315 1323 1331 1338 1353 1357 1367 1372 1385 1412 1422 1421 1281 1255 1296 1309 1165 1172 1071 -9999 -9999 -9999 -9999 -9999 -9999 -9999 -9999 -9999 -9999 -9999 -9999 -9999 -9999 -9999 -9999 -9999 -9999 -9999 -9999 -9999 -9999 -9999 -9999 -9999 -9999 -9999 -9999 -9999 -9999 -9999 -9999 -9999 -9999 -9999 -9999 -9999
-9999 -9999 -9999 -9999 -9999 -9999 -9999 -9999 -9999 -9999 -9999 -9999 -9999 -9999 -9999 -9999 -9999 -9999 -9999 -9999 -9999 -9999 -9999 -9999 -9999 -9999 -9999 -9999 -9999 -9999 -9999 -9999 -9999 -9999 -9999 -9999 -9999 1534 1533 1526 1515 1490 1492 1486 1473 1463 1424 1421 1402 1400 1385 1367 1347 1348 1327 1268 1224 1224 1213 1069 1054 1069 1029 1026 993 970 964 931 910 904 878 884 876 858 840 822 821 814 812 798 821 827 813 798 781 786 786 778 770 753 732 741 722 718 733 749 743 750 758 749 737 726 687 688 682 683 679 680 674 673 686 649 623 623 619 620 624 624 636 645 657 659 662 687 718 749 702 693 714 742 761 792 787 816 834 839 813 815 847 840 826 827 851 864 857 858 854 853 852 870 864 886 874 879 883 898 901 907 925 933 915 931 937 937 949 933 916 925 942 961 980 988 991 983 980 992 985 994 988 988 1002 984 1010 1030 1019 1028 1029 1020 1023 1009 990 1002 1016 1025 1032 1027 1037 1052 1067 1090 1078 1071 1078 1069 1069 1081 1099 1102 1087 1092 1097 1090 1089 1084 1080 1069 1070 1075 1070 1075 1077 1082 1077 1065 1064 1074 1087 1087 1084 1103 1109 1095 1100 1093 1092 1083 1088 1082 1091 1104 1089 1092 1078 1071 1088 1094 1102 1099 1080 1071 1084 1068 1085 1093 1090 1092 1078 1072 1069 1062 1059 1031 1041 1037 1019 1018 1035 1019 1031 1016 1032 1037 1050 1041 1027 1014 1016 1005 1022 1017 1006 999 991 995 996 993 1003 1002 1006 1016 1028 1038 1021 1039 1038 1014 1036 1028 1043 1030 1042 1045 1037 1022 1033 1047 1054 1065 1054 1048 1051 1074 1072 1074 1076 1082 1083 1079 1056 1059 1074 1069 1048 1066 1063 1044 1050 1053 1075 1078 1079 1078 1061 1060 1077 1071 1086 1072 1088 1090 1089 1089 1087 1083 1072 1064 1050 1053 1065 1055 1048 1054 1037 1031 1029 1038 1045 1056 1065 1069 1076 1090 1088 1079 1076 1060 1052 1067 1085 1097 1270 1154 1117 1115 1136 1148 1232 1222 1294 1228 1155 1146 1160 1207 1200 1268 1341 1183 1170 1164 1138 1138 1148 1155 1170 1187 1199 1207 1209 1217 1377 1362 1390 1410 1449 1458 1632 1479 1212 1199 1186 1178 1184 1198 1183 1169 1156 1145 1140 1132 1124 1129 1140 1140 1132 1130 1130 1130 1135 1140 1140 1132 1133 1133 1137 1140 1137 1133 1132 1133 1134 1136 1138 1141 1146 1147 1148 1147 1150 1150 1153 1156 1164 1171 1171 1168 1171 1178 1184 1192 1185 1175 1166 1162 1161 1167 1175 1185 1191 1183 1184 1197 1203 1206 1219 1221 1206 1201 1208 1215 1224 1232 1238 1246 1247 1249 1244 1245 1250 1254 1257 1268 1273 1286 1293 1301 1307 1309 1302 1306 1313 1322 1332 1338 1344 1361 1380 1389 1405 1448 1437 1385 1357 1344 1437 1307 1194 1091 1086 1057 -9999 -9999 -9999 -9999 -9999 -9999 -9999 -9999 -9999 -9999 -9999 -9999 -9999 -9999 -9999 -9999 -9999 -9999 -9999 -9999 -9999 -9999 -9999 -9999 -9999 -9999 -9999 -9999 -9999 -9999 -9999 -9999 -9999 -9999 -9999 -9999
-9999 -9999 -9999 -9999 -9999 -9999 -9999 -9999 -9999 -9999 -9999 -9999 -9999 -9999 -9999 -9999 -9999 -9999 -9999 -9999 -9999 -9999 -9999 -9999 -9999 -9999 -9999 -9999 -9999 -9999 -9999 -9999 -9999 -9999 -9999 -9999 -9999 1554 1554 1529 1507 1502 1484 1467 1462 1447 1417 1426 1408 1405 1407 1380 1329 1346 1368 1247 1255 1258 1162 1078 1050 1108 1050 1026 977 961 950 924 907 888 900 903 892 859 828 827 834 833 829 826 841 841 823 803 797 811 799 781 763 745 747 738 738 739 758 795 773 777 767 747 735 691 678 681 676 677 675 667 673 657 665 664 623 623 619 623 623 635 642 643 652 658 665 692 716 756 763 727 726 755 785 791 769 795 810 814 801 810 832 809 817 824 834 853 838 843 854 841 847 843 857 863 862 882 887 884 891 909 912 912 922 914 925 936 943 924 913 948 949 964 968 970 960 969 964 974 967 978 973 993 983 998 1013 1019 1007 1018 1027 1029 1011 1002 987 993 1010 1013 1019 1035 1034 1041 1054 1064 1089 1087 1086 1080 1081 1085 1102 1093 1100 1081 1081 1086 1072 1075 1072 1082 1074 1067 1073 1062 1065 1071 1076 1067 1061 1067 1079 1096 1106 1108 1088 1080 1093 1086 1086 1075 1084 1094 1098 1104 1111 1101 1084 1082 1085 1113 1108 1111 1099 1095 1086 1081 1085 1104 1086 1086 1074 1059 1048 1053 1038 1030 1023 1024 1023 1037 1041 1023 1033 1020 1037 1053 1054 1031 1022 1032 1027 1016 1027 1018 1011 1018 1011 1013 1003 996 1006 1011 1018 1024 1033 1036 1015 1029 1031 1012 1023 1037 1039 1023 1037 1017 1024 1028 1032 1037 1044 1067 1060 1045 1062 1057 1067 1060 1071 1074 1081 1076 1047 1047 1053 1048 1045 1062 1058 1043 1058 1064 1069 1060 1073 1062 1054 1062 1073 1070 1081 1066 1082 1080 1090 1088 1079 1068 1063 1055 1066 1066 1066 1072 1070 1061 1040 1033 1029 1034 1047 1045 1048 1058 1076 1076 1088 1086 1081 1071 1050 1062 1065 1091 1118 1114 1097 1094 1113 1104 1117 1130 1131 1292 1147 1139 1159 1158 1166 1263 1415 1174 1156 1155 1141 1135 1144 1154 1168 1192 1218 1224 1447 1430 1368 1450 1378 1395 1423 1447 1404 1409 1318 1204 1194 1182 1192 1214 1210 1176 1160 1150 1139 1130 1123 1123 1129 1135 1130 1128 1129 1129 1135 1137 1133 1130 1132 1135 1139 1139 1134 1131 1131 1130 1131 1133 1136 1139 1143 1142 1143 1145 1147 1147 1150 1157 1165 1172 1168 1165 1171 1179 1186 1193 1188 1169 1161 1161 1162 1173 1174 1186 1187 1180 1187 1195 1196 1204 1211 1216 1199 1198 1204 1211 1218 1229 1237 1240 1240 1250 1251 1254 1256 1259 1265 1269 1280 1282 1288 1288 1296 1293 1298 1306 1322 1334 1338 1355 1368 1375 1385 1411 1417 1435 1457 1454 1428 1577 1545 1353 1343 1100 1088 1056 1045 -9999 -9999 -9999 -9999 -9999 -9999 -9999 -9999 -9999 -9999 -9999 -9999 -9999 -9999 -9999 -9999 -9999 -9999 -9999 -9999 -9999 -9999 -9999 -9999 -9999 -9999 -9999 -9999 -9999 -9999 -9999 -9999 -9999 -9999 -9999
-9999 -9999 -9999 -9999 -9999 -9999 -9999 -9999 -9999 -9999 -9999 -9999 -9999 -9999 -9999 -9999 -9999 -9999 -9999 -9999 -9999 -9999 -9999 -9999 -9999 -9999 -9999 -9999 -9999 -9999 -9999 -9999 -9999 -9999 -9999 -9999 -9999 1576 1552 1527 1516 1505 1493 1478 1457 1428 1410 1422 1426 1413 1399 1374 1333 1358 1379 1262 1288 1251 1140 1111 1093 1030 1027 999 964 941 925 916 901 917 913 882 871 849 831 840 858 843 831 851 864 840 824 811 810 797 790 771 756 771 755 751 767 766 769 809 784 775 773 769 746 679 672 665 659 668 677 657 664 635 646 668 624 623 622 623 637 640 646 644 652 660 673 701 735 732 717 710 706 738 762 768 753 779 790 790 782 804 797 789 798 807 818 841 810 820 828 834 837 855 868 881 894 903 905 903 901 900 895 903 901 909 904 922 926 910 926 939 935 967 959 953 948 957 964 959 976 965 975 991 977 980 1022 1015 997 1007 1007 1008 1004 1001 988 997 1014 1023 1024 1045 1058 1051 1061 1062 1079 1095 1099 1099 1099 1095 1105 1103 1087 1085 1096 1089 1087 1089 1079 1089 1083 1082 1075 1068 1062 1059 1064 1060 1070 1077 1094 1093 1092 1099 1092 1086 1087 1081 1071 1076 1092 1097 1108 1110 1112 1090 1095 1095 1102 1111 1099 1093 1091 1081 1090 1100 1100 1085 1077 1068 1069 1067 1064 1053 1031 1044 1036 1024 1039 1045 1040 1046 1041 1025 1046 1055 1062 1043 1048 1028 1019 1034 1031 1026 1019 1025 1022 1016 1008 993 1014 1010 1017 1012 1019 1029 1015 1018 1022 1013 1024 1039 1033 1020 1012 1015 1033 1046 1039 1053 1061 1063 1048 1042 1051 1051 1067 1058 1056 1070 1075 1077 1062 1048 1046 1042 1043 1064 1058 1043 1052 1060 1050 1064 1060 1056 1052 1065 1063 1071 1071 1066 1078 1076 1086 1082 1083 1085 1074 1068 1077 1075 1079 1072 1051 1048 1041 1040 1031 1032 1037 1043 1051 1066 1066 1082 1091 1089 1074 1059 1051 1048 1056 1084 1095 1105 1089 1086 1088 1098 1106 1119 1264 1253 1164 1132 1139 1149 1149 1162 1291 1261 1140 1137 1133 1137 1152 1164 1345 1264 1232 1325 1412 1384 1378 1411 1397 1404 1415 1476 1433 1266 1218 1207 1197 1190 1198 1204 1207 1181 1170 1152 1141 1138 1130 1122 1123 1131 1127 1126 1127 1127 1132 1135 1129 1129 1131 1139 1140 1136 1132 1129 1128 1129 1129 1131 1134 1134 1137 1139 1141 1142 1144 1146 1148 1152 1158 1169 1164 1162 1172 1176 1183 1186 1181 1177 1164 1159 1159 1164 1171 1180 1180 1176 1184 1188 1191 1199 1208 1205 1195 1196 1201 1210 1222 1227 1232 1229 1234 1241 1245 1252 1262 1264 1271 1272 1278 1274 1285 1278 1281 1287 1291 1305 1314 1332 1346 1355 1369 1382 1398 1409 1435 1454 1470 1494 1512 1582 1604 1368 1370 1171 1091 1070 1059 1044 -9999 -9999 -9999 -9999 -9999 -9999 -9999 -9999 -9999 -9999 -9999 -9999 -9999 -9999 -9999 -9999 -9999 -9999 -9999 -9999 -9999 -9999 -9999 -9999 -9999 -9999 -9999 -9999 -9999 -9999 -9999 -9999 -9999 -9999
-9999 -9999 -9999 -9999 -9999 -9999 -9999 -9999 -9999 -9999 -9999 -9999 -9999 -9999 -9999 -9999 -9999 -9999 -9999 -9999 -9999 -9999 -9999 -9999 -9999 -9999 -9999 -9999 -9999 -9999 -9999 -9999 -9999 -9999 -9999 -9999 -9999 1582 1544 1517 1519 1499 1486 1462 1448 1431 1393 1396 1438 1406 1374 1358 1350 1359 1328 1302 1337 1215 1125 1122 1108 1004 990 976 983 965 945 938 935 916 904 885 864 841 850 857 878 859 863 886 865 845 820 802 793 783 772 763 780 794 770 781 790 794 790 807 794 782 796 785 776 686 674 670 657 653 655 645 638 633 626 623 623 623 622 638 643 648 652 651 665 672 694 704 713 685 668 678 691 740 746 736 734 753 763 765 768 769 798 802 813 814 811 818 822 836 849 858 867 890 880 895 916 907 931 919 915 923 903 914 915 912 911 906 916 919 919 934 922 949 944 952 957 945 945 945 963 960 961 973 981 1007 1005 995 987 1005 999 1001 990 982 986 994 1008 1023 1039 1041 1058 1072 1078 1085 1097 1107 1118 1112 1121 1110 1095 1086 1094 1099 1090 1081 1081 1077 1073 1094 1094 1086 1082 1076 1078 1070 1059 1058 1071 1072 1085 1077 1078 1096 1079 1075 1087 1068 1079 1087 1079 1092 1110 1116 1122 1113 1115 1110 1101 1112 1111 1102 1093 1086 1086 1092 1094 1079 1071 1060 1052 1047 1046 1040 1057 1048 1023 1030 1041 1063 1047 1044 1053 1031 1025 1047 1062 1062 1055 1029 1017 1045 1041 1035 1020 1035 1025 1023 1004 996 999 993 995 992 1016 1027 1016 1016 1000 1013 1027 1033 1021 1005 1008 1027 1030 1044 1052 1057 1056 1055 1036 1040 1058 1065 1069 1044 1049 1072 1065 1080 1070 1062 1038 1034 1044 1057 1050 1036 1057 1061 1047 1058 1042 1045 1059 1070 1054 1063 1065 1069 1064 1080 1085 1069 1083 1091 1083 1085 1082 1081 1071 1061 1063 1061 1054 1040 1033 1032 1038 1050 1060 1072 1071 1078 1072 1084 1080 1066 1058 1049 1073 1082 1084 1102 1084 1075 1088 1105 1139 1137 1189 1197 1158 1131 1128 1136 1142 1157 1331 1187 1157 1138 1126 1157 1165 1254 1408 1316 1197 1310 1533 1420 1432 1423 1355 1348 1430 1437 1442 1257 1219 1208 1200 1197 1200 1200 1187 1177 1162 1153 1147 1142 1133 1124 1122 1128 1126 1125 1127 1126 1130 1132 1127 1127 1134 1140 1138 1134 1128 1127 1127 1127 1127 1129 1131 1133 1135 1136 1138 1141 1142 1145 1149 1153 1165 1168 1161 1159 1163 1170 1179 1184 1177 1166 1159 1157 1159 1166 1175 1176 1170 1171 1179 1186 1196 1202 1200 1203 1193 1194 1201 1208 1213 1226 1228 1222 1227 1230 1238 1248 1254 1261 1260 1258 1264 1264 1268 1270 1276 1284 1291 1296 1313 1325 1336 1343 1355 1380 1392 1404 1431 1450 1472 1498 1515 1637 1583 1404 1416 1215 1110 1089 1073 1058 1055 -9999 -9999 -9999 -9999 -9999 -9999 -9999 -9999 -9999 -9999 -9999 -9999 -9999 -9999 -9999 -9999 -9999 -9999 -9999 -9999 -9999 -9999 -9999 -9999 -9999 -9999 -9999 -9999 -9999 -9999 -9999 -9999 -9999
